# .PCD v0.7 - Point Cloud Data file format
VERSION 0.7
FIELDS x y z
SIZE 4 4 4
TYPE F F F
COUNT 1 1 1
WIDTH 1436
HEIGHT 1
VIEWPOINT 0 0 0 1 0 0 0
POINTS 1436
DATA ascii
-0.014266917 -8.9896326 -1.3780869
-0.019383054 -9.0366201 -1.0848603
-0.1230142 -8.0382805 -0.69545245
-0.12848835 -8.0559587 -0.43539497
-0.5182004 -4.1195521 0.77657551
-0.12130476 -8.3052473 0.088850655
-0.026749061 -8.9766321 -1.9846382
-0.24305017 -7.1384268 0.30048293
-0.031979308 -9.0093679 -1.6847879
-0.33123544 -6.2167053 0.45175031
-0.45000279 -4.9662395 0.65440488
-0.53113258 -4.105052 0.77277285
-0.067032322 -9.1225338 -0.19784169
-0.14633925 -8.3275719 0.088528715
-0.26408523 -7.1603332 0.30094734
-0.059617557 -9.0275545 -1.6885487
-0.066629879 -9.0418873 -1.3870327
-0.41522205 -5.5084119 0.56409109
-0.074431658 -9.0634356 -1.0888958
-0.46632278 -4.9537745 0.65192479
-0.17327261 -8.0427399 -0.69657815
-0.56871283 -3.8358345 0.82979208
-0.17319785 -8.3298855 0.087925114
-0.59242785 -3.5794098 0.87323159
-0.079879336 -9.0183573 -1.9945878
-0.08737421 -9.0456476 -1.692315
-0.37030429 -6.2200646 0.45087206
-0.43166307 -5.517766 0.56465155
-0.10054377 -9.1034584 -1.0943265
-0.52073699 -4.5122628 0.72274184
-0.20396656 -8.0725317 -0.43766886
-0.12363802 -9.15944 -0.19985284
-0.30877268 -7.1760616 0.30050012
-0.11492046 -9.0675573 -1.6968648
-0.12211072 -9.082118 -1.3941165
-0.12902102 -9.117691 -1.0965006
-0.49588084 -4.9661131 0.65276659
-0.22483732 -8.0309744 -0.6962598
-0.22956459 -8.0785818 -0.43848056
-0.56532973 -4.1411676 0.77946699
-0.15181056 -9.1817379 -0.20095213
-0.22374512 -8.3580561 0.087066673
-0.61360258 -3.5676742 0.86873287
-0.13401316 -9.053916 -2.0031888
-0.3313871 -7.1657963 0.29942501
-0.46430054 -5.5303016 0.56507474
-0.17938094 -9.193862 -0.20181029
-0.62367517 -3.5645962 0.86735505
-0.16127713 -9.0618048 -2.0051937
-0.16750194 -9.1108923 -1.705916
-0.42517388 -6.2363105 0.45060444
-0.1754663 -9.1178303 -1.4005159
-0.18121459 -9.1733532 -1.1043173
-0.52514672 -4.9623652 0.65119368
-0.27316788 -8.042594 -0.69810361
-0.561652 -4.4838705 0.71587896
-0.27913785 -8.0782833 -0.43937945
-0.61209679 -3.839211 0.82880652
-0.27385703 -8.3778181 0.086112864
-0.19033132 -9.0463047 -2.0017109
-0.3740831 -7.1789126 0.29891622
-0.53892362 -4.973238 0.65238708
-0.29612023 -8.066165 -0.70067072
-0.23406021 -9.2278156 -0.20375486
-0.22688532 -9.0058432 -1.9924121
-0.23431309 -9.0427341 -1.6929213
-0.46706748 -6.2431836 0.44996789
-0.23978148 -9.0866261 -1.396162
-0.51624703 -5.539916 0.56458092
-0.24784131 -9.1142635 -1.097692
-0.32742256 -8.06425 -0.70102131
-0.33373636 -8.0799809 -0.44052005
-0.61384511 -4.1582942 0.78142875
-0.26890829 -9.2240953 -0.20442048
-0.33085138 -8.399683 0.085013621
-0.42374846 -7.17416 0.29739609
-0.26711312 -8.9897757 -1.6826837
-0.27350321 -9.0215063 -1.3859254
-0.28011173 -9.0725546 -1.0928305
-0.57208955 -4.9674602 0.65041333
-0.62579948 -4.1668549 0.78290796
-0.30055991 -9.1980095 -0.20450824
-0.66520274 -3.5827267 0.87099171
-0.29224464 -8.8948088 -1.9667307
-0.29855499 -8.9523554 -1.6755596
-0.30555007 -8.9759569 -1.3788934
-0.31208548 -9.0307264 -1.0879653
-0.37808812 -8.0633402 -0.70182645
-0.61624557 -4.5031371 0.71758282
-0.384574 -8.1010637 -0.44274387
-0.3331652 -9.151845 -0.2041598
-0.38416758 -8.394866 0.083679803
-0.32097164 -8.8710918 -1.9614083
-0.46724483 -7.1967101 0.29731795
-0.32829663 -8.9147396 -1.6683987
-0.52398437 -6.2465906 0.44864497
-0.33583364 -8.9302101 -1.3718228
-0.56745487 -5.53302 0.56222713
-0.34140125 -9.0045462 -1.0850805
-0.40242663 -8.0686865 -0.70276624
-0.36375022 -9.1094723 -0.2038594
-0.66906375 -3.8427558 0.82748634
-0.68616724 -3.557054 0.86246431
-0.34986979 -8.8414431 -1.9547094
-0.48983771 -7.18191 0.29604083
-0.54263687 -6.2675395 0.44983912
-0.36515716 -8.8961811 -1.3666773
-0.37203833 -8.9505291 -1.0786598
-0.61559939 -4.9817677 0.65120798
-0.42787844 -8.0779963 -0.70410568
-0.43462193 -8.0917549 -0.44322047
-0.66233081 -4.1571536 0.77941972
-0.39526087 -9.0430279 -0.20302938
-0.43719801 -8.3936777 0.082389422
-0.38082382 -8.7962132 -1.944374
-0.51262534 -7.1850467 0.29559797
-0.38988736 -8.811842 -1.6486359
-0.56270933 -6.2605515 0.44871396
-0.39608854 -8.8542328 -1.3602757
-0.40454566 -8.8806181 -1.0702457
-0.42608809 -9.0124865 -0.20301735
-0.46327415 -8.4169512 0.082034312
-0.41145974 -8.7508688 -1.9340336
-0.41999075 -8.7778873 -1.6422772
-0.42729262 -8.8003407 -1.351939
-0.61741889 -5.5513897 0.56291115
-0.4348886 -8.8462563 -1.0663737
-0.48005778 -8.0724773 -0.70459563
-0.48658398 -8.0941925 -0.4444479
-0.4572179 -8.9698486 -0.20273836
-0.71565562 -3.5833919 0.86923206
-0.44177651 -8.7054129 -1.923689
-0.55582523 -7.2229733 0.29625651
-0.44826749 -8.7476854 -1.6366639
-0.457766 -8.75422 -1.3448844
-0.46339351 -8.81569 -1.0629709
-0.51240736 -8.0992651 -0.44529384
-0.69791192 -4.1860952 0.78472364
-0.48692361 -8.9190464 -0.20224355
-0.71365935 -3.8448281 0.82643235
-0.51641154 -8.4152222 0.080725454
-0.4700442 -8.6675701 -1.9151418
-0.57958174 -7.2039204 0.29475603
-0.47840789 -8.7017622 -1.6279551
-0.62064123 -6.2670102 0.44766447
-0.48586005 -8.7237139 -1.3403687
-0.49294981 -8.7890425 -1.0601058
-0.67595249 -4.9804568 0.64917332
-0.53015041 -8.0844555 -0.70671684
-0.6950779 -4.5481429 0.72350425
-0.5174306 -8.8761854 -0.20195551
-0.54371512 -8.4122467 0.080025844
-0.50082749 -8.6297264 -1.9066582
-0.50807291 -8.6596489 -1.6200235
-0.51654744 -8.6932058 -1.3359178
-0.66884321 -5.5613394 0.56261474
-0.5247435 -8.734581 -1.053727
-0.56483221 -8.0891857 -0.44585237
-0.72435135 -4.1558218 0.77706671
-0.54866654 -8.8452482 -0.20196529
-0.57035238 -8.4291649 0.079575546
-0.52995646 -8.5917244 -1.8981375
-0.62593883 -7.229495 0.29476473
-0.53938049 -8.6017885 -1.6089915
-0.54642522 -8.6388674 -1.3275609
-0.68588156 -5.5698314 0.56313509
-0.55499929 -8.6720238 -1.0462941
-0.58330387 -8.0862198 -0.70799381
-0.7223081 -4.5588746 0.72470307
-0.57883793 -8.7941675 -0.20149034
-0.55907249 -8.5458364 -1.8877754
-0.56676668 -8.5672598 -1.6025822
-0.67986244 -6.2649307 0.44591391
-0.57555622 -8.5962591 -1.321134
-0.58236927 -8.6450138 -1.043385
-0.72185045 -4.9740009 0.64686149
-0.6161747 -8.1126699 -0.44836748
-0.74800259 -4.1799369 0.78176397
-0.60734183 -8.7389431 -0.2008854
-0.62447274 -8.4427338 0.078410216
-0.76770502 -3.5794106 0.86626059
-0.58679634 -8.4900827 -1.8750765
-0.67065507 -7.2407055 0.2941497
-0.59506691 -8.5405121 -1.5977688
-0.69938684 -6.2733989 0.44609264
-0.60428447 -8.5574913 -1.3153481
-0.71946603 -5.5766902 0.56301957
-0.7368356 -4.9862361 0.64830846
-0.63382506 -8.0895367 -0.70940346
-0.7495749 -4.575314 0.72700739
-0.63819295 -8.6876793 -0.20043278
-0.77002215 -3.8543069 0.82710189
-0.61614186 -8.4615307 -1.8688753
-0.69607288 -7.1793189 0.29063565
-0.62459612 -8.5117302 -1.5925951
-0.72002906 -6.2778335 0.44591594
-0.63373256 -8.5344334 -1.3121759
-0.73787189 -5.5631781 0.56094319
-0.64080191 -8.5868311 -1.0371546
-0.76426756 -4.5638256 0.72442544
-0.66998315 -8.0939016 -0.44851708
-0.7740131 -4.1922255 0.78376466
-0.66828644 -8.656291 -0.20042723
-0.68042207 -8.4399548 0.077000372
-0.72027123 -7.1677742 0.28948349
-0.65441298 -8.4593096 -1.5827177
-0.66220194 -8.4836178 -1.3044446
-0.67080891 -8.5357742 -1.0312576
-0.76887709 -4.9868546 0.64752573
-0.68668866 -8.1084785 -0.71236587
-0.69693911 -8.6127739 -0.200112
-0.6718083 -8.3884974 -1.8527184
-0.68118519 -8.4047832 -1.5723755
-0.68876284 -8.4445257 -1.2986141
-0.77220035 -5.5835991 0.56242698
-0.69795656 -8.4687033 -1.0232528
-0.78340739 -4.9831038 0.64656496
-0.7910282 -4.5819302 0.72710413
-0.72022814 -8.1266251 -0.45160663
-0.72731608 -8.2892332 -0.19336714
-0.73337513 -8.4567423 0.0758885
-0.69789112 -8.3537674 -1.8450618
-0.76354516 -7.1803327 0.28897887
-0.77731425 -6.2746921 0.44418275
-0.71517187 -8.3974504 -1.2914859
-0.72417182 -8.4412136 -1.020329
-0.75359726 -8.1855173 -0.19161133
-0.81534636 -3.8472531 0.82396168
-0.81905133 -3.584095 0.86615032
-0.72539043 -8.2936602 -1.831449
-0.73306656 -8.3464508 -1.5618718
-0.74248892 -8.3621368 -1.2863276
-0.81236774 -4.9873185 0.64645225
-0.76185316 -8.1431284 -0.71737742
-0.81806368 -4.5546517 0.7212469
-0.77128029 -8.1031017 -0.45147753
-0.8221423 -4.1849928 0.78082252
-0.77845579 -8.2136765 -0.19287536
-0.78666979 -8.4451714 0.0744275
-0.81676733 -6.2868977 0.44418219
-0.76808959 -8.3464603 -1.2843708
-0.82246178 -5.5800085 0.56071681
-0.77737939 -8.3899441 -1.0150182
-0.78696066 -8.3782082 -0.73991007
-0.83192897 -4.5920439 0.72794324
-0.79537064 -8.2928686 -0.46309981
-0.80475545 -8.2757454 -0.19496407
-0.81391954 -8.4612494 0.073937327
-0.77744132 -8.2412777 -1.8202958
-0.83102369 -7.1806517 0.28730163
-0.78690016 -8.2720852 -1.5482839
-0.79502869 -8.2991209 -1.2772635
-0.81390405 -8.3821983 -0.74095464
-0.82203966 -8.2489452 -0.46121374
-0.83139205 -8.2697411 -0.19549124
-0.80389506 -8.19841 -1.8108149
-0.81344068 -8.2249575 -1.5395204
-0.82163662 -8.2556353 -1.2707989
-0.83115137 -8.2827663 -1.0025903
-0.84072208 -8.3283463 -0.73661458
-0.85008168 -8.2987642 -0.46481815
-0.86832547 -8.4231243 0.072125822
-0.83135438 -8.1554422 -1.8013617
-0.87689 -7.194458 0.28680363
-0.83969033 -8.193428 -1.5338951
-0.87604469 -6.2827625 0.44237009
-0.84923261 -8.204155 -1.2630653
-0.87550366 -5.5997262 0.56171232
-0.8589263 -8.2548161 -0.99971873
-0.87340814 -4.9872398 0.64492428
-0.86725426 -8.2883406 -0.73356974
-0.87370235 -4.5997639 0.72837734
-0.87289643 -4.2005062 0.78306299
-0.88610661 -8.2854319 -0.19723774
-0.87197959 -3.8549583 0.82457256
-0.8950308 -8.3729248 0.070862986
-0.87092763 -3.5802233 0.86370438
-0.85717744 -8.1065531 -1.7904868
-0.90125132 -7.2182078 0.28730872
-0.86708903 -8.1715984 -1.530266
-0.8753739 -8.1841669 -1.2604845
-0.88528043 -8.2386818 -0.99834466
-0.89490694 -8.2561941 -0.73129869
-0.90469861 -8.2882957 -0.46561736
-0.91273642 -8.2811432 -0.19781934
-0.92280596 -8.3286152 0.069640934
-0.88418061 -8.0848017 -1.7860998
-0.92413044 -7.2099233 0.28635478
-0.89289397 -8.1359634 -1.5238491
-0.91688573 -6.3022346 0.44296646
-0.90247083 -8.1443348 -1.254689
-0.91260141 -8.2026033 -0.99444717
-0.92095464 -8.219986 -0.72861844
-0.90142274 -4.560113 0.72026247
-0.93066782 -8.2400036 -0.4634926
-0.9491269 -8.2962265 0.068594404
-0.91756314 -8.1316376 -1.523692
-0.92588538 -8.1399975 -1.2546374
-0.92679441 -5.5990472 0.56041044
-0.91945338 -4.9984822 0.64556587
-0.94576687 -8.2036257 -0.72776592
-0.91469908 -4.5677447 0.72140628
-0.96382195 -8.2323313 -0.19801021
-0.97436988 -8.2877674 0.067855746
-0.93340576 -8.0955992 -1.7901225
-0.96884149 -7.2051239 0.28502697
-0.96258426 -8.2016659 -0.9957239
-0.97250319 -8.2229891 -0.73030686
-0.98083127 -8.2310486 -0.46431062
-0.92171609 -4.1763115 0.77655214
-0.91706884 -3.8658383 0.82646525
-0.96918333 -8.1109133 -1.5210861
-0.97388983 -6.2831526 0.44004071
-0.97775984 -8.1270285 -1.254022
-0.9617883 -5.6062288 0.5604437
-0.99670655 -8.1845617 -0.72740155
-1.0168037 -8.2311163 -0.19937001
-0.92748225 -3.8539665 0.8231563
-1.0266187 -8.2925568 0.066585116
-0.9828788 -8.0515604 -1.781251
-1.0140764 -7.2199917 0.28461078
-1.0012299 -8.0750723 -1.2461991
-1.0122036 -8.1349258 -0.98858434
-0.96445048 -4.9934516 0.6438061
-1.0202336 -8.1301346 -0.72299612
-1.0316477 -8.2017679 -0.46399522
-1.0412685 -8.2064257 -0.1994468
-1.0501398 -8.2298717 0.065246195
-1.0058259 -7.9924803 -1.7680122
-1.01669 -8.0428734 -1.508956
-1.0122803 -6.2780719 0.438723
-1.0249044 -8.0427704 -1.2416254
-1.0352565 -8.0746899 -0.98152977
-0.96948737 -4.591887 0.72481346
-1.0546966 -8.1371317 -0.46088016
-1.0654423 -8.1776619 -0.19942605
-1.075707 -8.2010489 0.06425298
-1.030652 -7.9682975 -1.7631239
-1.0410379 -7.9969387 -1.500553
-1.0492818 -7.9985147 -1.2351277
-1.0121166 -5.6007218 0.55867571
-1.0600916 -8.0420933 -0.97809446
-1.0706546 -8.0766945 -0.71947783
-1.0798589 -8.1082964 -0.45991051
-0.97073549 -4.1865768 0.7779187
-1.0898765 -8.124795 -0.19885992
-0.9613905 -3.8645122 0.82531863
-1.1001834 -8.14816 0.06300211
-1.0548149 -7.9284739 -1.7545325
-1.0821068 -7.2217216 0.28303087
-1.0655941 -7.9666018 -1.4953009
-1.0741713 -7.9778457 -1.2325354
-1.0852722 -8.0252724 -0.97671115
-1.0956652 -8.0518389 -0.71790308
-1.1040658 -8.0594273 -0.45775869
-1.1141794 -8.0778427 -0.1984317
-1.125837 -8.1331587 0.062166553
-0.9638778 -3.5913134 0.86533171
-1.0792578 -7.9041276 -1.7496395
-1.0900145 -7.9381433 -1.4904404
-1.071759 -6.2818513 0.4376612
-1.0966729 -7.8979383 -1.2201596
-1.1103393 -8.0083656 -0.97532755
-1.0247971 -4.991282 0.64223433
-1.1200213 -8.0149622 -0.71520019
-1.0119015 -4.6060143 0.72667158
-1.1299256 -8.0583544 -0.45843643
-1.1390173 -8.0507898 -0.19848225
-1.1505083 -8.0980902 0.061117806
-1.1290655 -7.239748 0.28273383
-1.1142416 -7.9096045 -1.4855776
-1.1180512 -7.8041654 -1.205488
-1.0646679 -5.606534 0.5582301
-1.134614 -7.975522 -0.9718855
-1.1639481 -8.0296459 -0.19867645
-1.1744623 -8.0529537 0.05996706
-1.1266556 -7.8318672 -1.7342894
-1.1123887 -6.3019409 0.43838564
-1.1417055 -7.7753844 -1.2015746
-1.1581156 -7.9307117 -0.9668957
-1.1675972 -7.9330173 -0.70902991
-1.1777582 -7.9761744 -0.45505852
-1.0210817 -4.1922073 0.77835268
-1.1885363 -8.0044241 -0.19877188
-0.99669033 -3.6166694 0.87250566
-1.1503404 -7.8033972 -1.728462
-1.1747893 -7.2295074 0.28115168
-1.1615562 -7.8405399 -1.4734727
-1.1659278 -7.7622929 -1.2002716
-1.1805211 -7.8699813 -0.9598394
-1.0715133 -5.0048738 0.64341563
-1.1915718 -7.903862 -0.70706713
-1.0512887 -4.5627751 0.71784693
-1.2018749 -7.9469337 -0.45407462
-1.2118868 -7.9591565 -0.19837533
-1.0184162 -3.8657935 0.82483125
-1.2229657 -7.9904108 0.057972956
-1.1736434 -7.7709641 -1.721705
-1.1840632 -7.7902312 -1.4642513
-1.1548234 -6.3476124 0.44117516
-1.1168884 -5.6038575 0.55684656
-1.2153479 -7.8746305 -0.70510173
-1.0629997 -4.5286541 0.71123326
-1.22557 -7.9136271 -0.45285016
-1.2346989 -7.9098234 -0.19787478
-1.0295318 -3.8612943 0.82352138
-1.2460831 -7.9450464 0.05683646
-1.019207 -3.6384749 0.87879705
-1.196928 -7.7423425 -1.7158719
-1.2218354 -7.2428827 0.2806465
-1.1729459 -6.3325825 0.43954924
-1.2165101 -7.7792068 -1.2048601
-1.2292424 -7.8394089 -0.95756811
-1.2391542 -7.8492975 -0.70351088
-1.2693399 -7.9276328 0.056025181
-1.219802 -7.7097616 -1.7091086
-1.2305415 -7.754076 -1.4588166
-1.239694 -7.750104 -1.2009443
-1.1166967 -5.0022297 0.64220899
-1.2615401 -7.823966 -0.70188445
-1.273026 -7.8587437 -0.45110649
-1.071806 -4.2088518 0.78139073
-1.2808515 -7.8549294 -0.19791082
-1.2924582 -7.8901081 0.054978304
-1.0420631 -3.6677964 0.88737196
-1.2412353 -7.6771889 -1.7023088
-1.267391 -7.2480254 0.27979806
-1.2140311 -6.3479657 0.43991509
-1.2618181 -7.7269168 -1.1979748
-1.1676517 -5.5927649 0.55455542
-1.2742984 -7.7769265 -0.9511292
-1.2844948 -7.790535 -0.69953352
-1.0632949 -3.8630495 0.82362926
-1.3155937 -7.8565011 0.053975739
-1.2644089 -7.6561174 -1.6983243
-1.2756313 -7.6842785 -1.4466776
-1.2363154 -6.3784142 0.4419249
-1.2848918 -7.7016068 -1.1947091
-1.2956771 -7.7237711 -0.94507802
-1.118005 -4.5389175 0.71235043
-1.3176609 -7.7916946 -0.4486016
-1.3278065 -7.8036466 -0.19807073
-1.0749547 -3.8661165 0.82432812
-1.313597 -7.2447991 0.27854878
-1.2971566 -7.6394963 -1.4386206
-1.3069788 -7.6644135 -1.1894751
-1.3183647 -7.6942945 -0.94212395
-1.3280118 -7.6996269 -0.69254833
-1.3402654 -7.7580218 -0.44736063
-1.3492498 -7.7539649 -0.19754617
-1.3614771 -7.7930579 0.052020788
-1.3089719 -7.5943437 -1.6857046
-1.3192155 -7.6063833 -1.4329369
-1.2747538 -6.3535929 0.43908575
-1.3288141 -7.6271524 -1.1842366
-1.2216341 -5.6127768 0.55588496
-1.3399763 -7.6528788 -0.93761384
-1.3626413 -7.7242789 -0.44611603
-1.1210321 -4.1936045 0.7774229
-1.3719016 -7.7241554 -0.19751793
-1.3833085 -7.7512603 0.050950933
-1.0880971 -3.7029228 0.89760941
-1.33023 -7.5536528 -1.677066
-1.3614031 -7.2611651 0.278182
-1.3496473 -7.5799904 -1.1773534
-1.2393974 -5.6153579 0.55586535
-1.3625314 -7.6272182 -0.93517101
-1.3702875 -7.6084652 -0.68553948
-1.3841528 -7.682508 -0.44438693
-1.1355863 -4.215941 0.78229541
-1.393705 -7.6863031 -0.1972848
-1.4048553 -7.7093983 0.049886297
-1.3504612 -7.5032034 -1.666097
-1.3632765 -7.5477715 -1.4231464
-1.3174968 -6.3821459 0.44052875
-1.371724 -7.5524354 -1.1737466
-1.3849146 -7.6014867 -0.93272609
-1.1747316 -4.5561824 0.71488178
-1.4063756 -7.6526098 -0.44337493
-1.4159266 -7.6563549 -0.19724987
-1.1200426 -3.8586895 0.82208335
-1.4281744 -7.6913829 0.049055852
-1.3734769 -7.4914761 -1.6644253
-1.2739104 -5.6084571 0.55445194
-1.2252413 -5.009851 0.64167029
-1.4191482 -7.6083126 -0.68725306
-1.4287415 -7.6266208 -0.44260094
-1.1223657 -3.7192762 0.90241152
-1.4315667 -7.2631788 0.27662694
-1.4078848 -7.5045128 -1.416522
-1.41737 -7.5207062 -1.1704692
-1.4295129 -7.5537615 -0.92834878
-1.172172 -4.2009997 0.77865243
-1.4597623 -7.5962529 -0.19717085
-1.4733438 -7.6431756 0.04728502
-1.4175868 -7.4484134 -1.6564271
-1.4554849 -7.2689891 0.27633882
-1.4285839 -7.4671578 -1.4100281
-1.3797077 -6.396595 0.44044402
-1.4384447 -7.4870448 -1.1658703
-1.3102856 -5.6210942 0.55530798
-1.4595709 -7.5166259 -0.68021327
-1.2158046 -4.5504956 0.71337569
-1.4733282 -7.5784068 -0.44128814
-1.4821379 -7.5740623 -0.19733182
-1.4954948 -7.6169744 0.046384003
-1.4394287 -7.4267774 -1.6524258
-1.4790568 -7.2707367 0.27587062
-1.4506563 -7.4473095 -1.4071083
-1.4581898 -7.4415374 -1.1592934
-1.3273426 -5.6154523 0.55436772
-1.470849 -7.4781184 -0.92032331
-1.2714362 -5.0075169 0.64069134
-1.4804591 -7.4825912 -0.67782843
-1.4936393 -7.5363131 -0.43953848
-1.5035772 -7.5438418 -0.19728529
-1.1657916 -3.8583391 0.82183015
-1.5150801 -7.5668244 0.045265667
-1.4185848 -6.3887706 0.43903393
-1.4783567 -7.4157305 -1.1559696
-1.3430796 -5.6058879 0.55299681
-1.4899527 -7.4403286 -0.91627055
-1.5015135 -7.4644637 -0.67693359
-1.5124679 -7.4942856 -0.43774983
-1.5242254 -7.5196471 -0.19735694
-1.5339442 -7.5247045 0.044260547
-1.1663122 -3.724669 0.90406096
-1.4330125 -6.8878894 -1.5250571
-1.5242567 -7.2661543 0.27460682
-1.4448357 -6.9199214 -1.3017287
-1.4985472 -7.3799286 -1.1510293
-1.5111952 -7.4142013 -0.9138087
-1.5244579 -7.4540687 -0.67683548
-1.5334579 -7.4639969 -0.4367184
-1.2229453 -4.2077312 0.7798717
-1.5444469 -7.4813466 -0.19709741
-1.1892114 -3.8676019 0.82421714
-1.5558617 -7.5022945 0.043406416
-1.4650315 -6.9019961 -1.299156
-1.519926 -7.3578038 -1.148392
-1.3783265 -5.6061707 0.55247301
-1.5343417 -7.4077287 -0.91395038
-1.3157443 -4.9949532 0.63824058
-1.2713999 -4.5566511 0.71404487
-1.5633242 -7.4330525 -0.19657286
-1.5785098 -7.4877663 0.042624909
-1.4773468 -6.8928747 -1.5286094
-1.5737246 -7.2889309 0.27452576
-1.4784805 -6.3783555 0.43702263
-1.3971024 -5.6160889 0.55334049
-1.5644845 -7.381598 -0.67166287
-1.5765979 -7.4191051 -0.4356212
-1.5843374 -7.4065638 -0.19661599
-1.5992525 -7.4572682 0.041703247
-1.5040036 -6.8562145 -1.2920146
-1.5620273 -7.3113942 -1.1427821
-1.4145417 -5.6140976 0.55284637
-1.5765399 -7.3590794 -0.90954012
-1.3496187 -5.0190015 0.64151233
-1.5857077 -7.3591256 -0.67041159
-1.5974908 -7.3925915 -0.43482575
-1.22331 -3.8637869 0.82325327
-1.6197913 -7.4267092 0.040784895
-1.2134054 -3.7484045 0.9113487
-1.5165892 -6.8511577 -1.5209682
-1.6230688 -7.3073726 0.27425113
-1.5257998 -6.8556294 -1.2930266
-1.5224962 -6.4053741 0.43838891
-1.3688854 -5.048595 0.64579928
-1.3126694 -4.5519099 0.71287465
-1.6182067 -7.3660164 -0.4340277
-1.2745981 -4.2136693 0.78104585
-1.628215 -7.3732491 -0.19722086
-1.6401263 -7.3960891 0.039869871
-1.5463891 -6.4326072 0.44015971
-1.6014408 -7.2470961 -1.1341912
-1.6148061 -7.282608 -0.90146214
-1.6258008 -7.298172 -0.66636717
-1.6373003 -7.3274884 -0.43249217
-1.6490127 -7.3485489 -0.19731106
-1.5619488 -6.8652005 -1.5268714
-1.6696788 -7.3016629 0.27291912
-1.5724521 -6.8795233 -1.3002473
-1.6215409 -7.2207389 -1.1308819
-1.4678437 -5.6156416 0.552257
-1.6325855 -7.2364249 -0.8963694
-1.6440712 -7.2557564 -0.66318631
-1.6571267 -7.2968335 -0.43144241
-1.6668842 -7.3019676 -0.196816
-1.6817107 -7.3465767 0.038150452
-1.579515 -6.8296328 -1.5195446
-1.590737 -6.8495231 -1.2952787
-1.5710419 -6.31494 0.43013042
-1.6380403 -7.1669202 -1.1229395
-1.6530406 -7.2138047 -0.8944115
-1.6635711 -7.225142 -0.66115445
-1.6757289 -7.258203 -0.42989755
-1.6844373 -7.2553453 -0.19631419
-1.2676433 -3.8504729 0.81995475
-1.6963947 -7.2861891 0.037029769
-1.5990312 -6.8113828 -1.5164222
-1.7190711 -7.325489 0.27290556
-1.6597114 -7.1561089 -1.1222697
-1.5027127 -5.6111045 0.55125278
-1.672209 -7.1912751 -0.89241862
-1.4337454 -5.0682831 0.64816898
-1.3674724 -4.5489044 0.71204317
-1.3225936 -4.1957455 0.77703041
-1.7171941 -7.2652617 0.036212031
-1.269811 -3.7567439 0.91432691
-1.6183611 -6.8009319 -1.515139
-1.7353529 -7.2708735 0.26999262
-1.6391062 -6.8925028 -1.3064861
-1.6118613 -6.3175445 0.42960533
-1.6768323 -7.1199579 -1.117263
-1.5192643 -5.6088638 0.5507735
-1.4445643 -5.0328784 0.64271623
-1.7056116 -7.199419 -0.66051859
-1.7147821 -7.2086477 -0.42848572
-1.7248094 -7.2156143 -0.19670488
-1.7381338 -7.2462506 0.035411924
-1.7543402 -7.2379909 0.2680321
-1.7134664 -7.1535931 -0.8895427
-1.4693689 -5.0953369 0.65197277
-1.7257221 -7.176518 -0.65925205
-1.7444035 -7.1886487 -0.19672653
-1.6954879 -7.0473404 -1.5777186
-1.7745397 -7.2149439 0.26650366
-1.7188607 -7.0921478 -1.1149262
-1.5564046 -5.6196966 0.55155766
-1.7428882 -7.1338468 -0.6560511
-1.7638209 -7.1616263 -0.1967454
-1.3146293 -3.859611 0.8226496
-1.7784939 -7.2001185 0.033752155
-1.713659 -7.0152297 -1.5713419
-1.7277592 -7.0501218 -1.3428109
-1.6747011 -6.3307619 0.42957363
-1.7373788 -7.0615439 -1.1109377
-1.5732619 -5.6132193 0.55059797
-1.7514168 -7.0960317 -0.88403457
-1.7609148 -7.0990167 -0.65361792
-1.4235674 -4.5489221 0.71189404
-1.7758995 -7.1474733 -0.42726755
-1.3725951 -4.1886702 0.77557367
-1.7966765 -7.1650939 0.032831926
-1.3143483 -3.7542849 0.91417789
-1.7346566 -7.0042424 -1.570116
-1.816295 -7.1805215 0.26396394
-1.7715538 -7.0769792 -0.88259053
-1.5141106 -5.0747948 0.6485461
-1.779882 -7.0720148 -0.65195483
-1.8152308 -7.1339779 0.031946871
-1.7513485 -6.9643321 -1.5618585
-1.834245 -7.1454425 0.26193017
-1.7653373 -6.9968901 -1.3345019
-1.7154567 -6.3306522 0.428866
-1.7732296 -6.9962883 -1.1022859
-1.7886095 -7.0382614 -0.87851363
-1.5256162 -5.0470099 0.64427465
-1.7968736 -7.0331545 -0.64912593
-1.8103274 -7.0695539 -0.42412779
-1.8243796 -7.1019621 -0.19738577
-1.8335786 -7.1028104 0.031065511
-1.7692221 -6.9339962 -1.5559405
-1.8525892 -7.1142645 0.2600705
-1.6267914 -5.6130662 0.54995328
-1.8035901 -6.9877477 -0.87285143
-1.8191316 -7.029655 -0.64978462
-1.4666648 -4.5542336 0.71285081
-1.8277711 -7.0344772 -0.4227989
-1.7886742 -6.915144 -1.552834
-1.8713706 -7.0869827 0.25838375
-1.8131078 -6.9620218 -1.0989383
-1.8238081 -6.9724569 -0.87192553
-1.5614201 -5.071372 0.64775127
-1.8382397 -7.0064225 -0.64850271
-1.423798 -4.188601 0.77581948
-1.857926 -7.0237274 -0.19674206
-1.3755231 -3.8756886 0.82745099
-1.8722453 -7.0561218 0.029431783
-1.8899738 -7.059649 0.25669995
-1.8170172 -6.8953695 -1.3176025
-1.7774789 -6.3409238 0.42866379
-1.8278902 -6.9136405 -1.0919397
-1.6636256 -5.6191783 0.5502581
-1.8671477 -6.9957113 -0.42212617
-1.8752921 -6.9904714 -0.19657782
-1.3713193 -3.7608097 0.91708899
-1.8259814 -6.869585 -1.544739
-1.6803989 -5.61234 0.54928994
-1.8641578 -6.9496946 -0.87109524
-1.8742512 -6.9560509 -0.6455102
-1.9078517 -7.001514 0.027782578
-1.8414477 -6.8354015 -1.5378371
-1.9268967 -7.0128965 0.25371072
-1.8201214 -6.3499022 0.42869863
-1.8667994 -6.8850675 -1.0895472
-1.5209415 -4.5452104 0.71123022
-1.9035834 -6.9490299 -0.42091373
-1.4619895 -4.1900988 0.77643633
-1.915416 -6.9653897 -0.19737171
-1.4164019 -3.9100482 0.83688939
-1.929036 -6.991776 0.027072988
-1.9404718 -6.9598303 0.25094566
-1.8761084 -6.8554788 -1.313493
-1.8845096 -6.8579612 -1.0862
-1.7143686 -5.6064725 0.54826927
-1.8992777 -6.8913178 -0.86554021
-1.6273686 -5.0862818 0.64971012
-1.9114026 -6.9092159 -0.64293063
-1.9235046 -6.933382 -0.4208228
-1.9333144 -6.937891 -0.19736654
-1.430038 -3.9194539 0.83952516
-1.9452659 -6.9544015 0.026167748
-1.8797841 -6.8010426 -1.5325483
-1.9622085 -6.9539428 0.25019521
-1.8909924 -6.8130383 -1.3061019
-1.8622228 -6.3546386 0.42841336
-1.9162103 -6.8601093 -0.86249298
-1.941226 -6.9058824 -0.41997692
-1.9503267 -6.9064102 -0.19724627
-1.9662458 -6.9445405 0.025459668
-1.4145871 -3.7493758 0.91463691
-1.9083239 -6.7860041 -1.3019232
-1.919405 -6.8036079 -1.0794966
-1.7535473 -5.6236606 0.54988611
-1.9422807 -6.8308353 -0.6372143
-1.5664803 -4.5610499 0.71431255
-1.9678531 -6.8788204 -0.19723448
-1.9798917 -6.8952794 0.024480851
-1.9146159 -6.7492304 -1.5230203
-1.9989642 -6.9065928 0.24719267
-1.9272188 -6.7685652 -1.299754
-1.7702678 -5.6165209 0.54891044
-1.9516081 -6.809269 -0.85797691
-1.6741421 -5.0777698 0.64829201
-1.9602216 -6.8072577 -0.63591331
-1.9746776 -6.8428946 -0.41777143
-1.5141394 -4.192584 0.77749699
-1.9866747 -6.8590455 -0.19744547
-1.4706417 -3.943538 0.84641862
-1.9284683 -6.7050886 -1.5137794
-2.0167732 -6.8869743 0.24589413
-1.9431741 -6.7416382 -1.2955378
-1.9234509 -6.3554816 0.42753619
-1.9521619 -6.7413187 -1.0714446
-1.7869484 -5.6093249 0.54793411
-1.9650826 -6.7683926 -0.85356063
-1.9769424 -6.7838349 -0.63457727
-1.99035 -6.8074183 -0.41641
-1.4839731 -3.9528363 0.84905881
-2.0126636 -6.8361917 0.022841295
-2.0324957 -6.8514051 0.2439017
-1.9484485 -6.3770776 0.42890489
-1.9693743 -6.7219467 -1.0693864
-1.9804736 -6.7331309 -0.8499673
-2.0163848 -6.7861772 -0.1968631
-1.4987303 -3.9657669 0.85267019
-1.9636645 -6.666604 -1.5074965
-1.9766937 -6.6872549 -1.2871609
-1.9657893 -6.3594594 0.42722282
-1.9864074 -6.6965117 -1.0663552
-1.8256015 -5.6261168 0.54955256
-1.7208314 -5.0728011 0.64746755
-2.0162742 -6.7579303 -0.63412297
-1.6232026 -4.5622177 0.71480757
-2.0253227 -6.763998 -0.41541442
-2.0308404 -6.7466526 -0.19649522
-1.5120155 -3.9710467 0.85429353
-2.049669 -6.7963505 0.021309687
-1.4684062 -3.7371764 0.91241688
-1.981609 -6.6471834 -1.5043691
-2.0679932 -6.8036704 0.24091934
-2.0213037 -6.7169681 -0.85020828
-1.5618548 -4.1753135 0.77427149
-2.0671895 -6.7724299 0.020521278
-1.9979328 -6.6200824 -1.4993536
-2.0133185 -6.6519217 -1.2828066
-2.009048 -6.3670301 0.42720106
-2.01999 -6.6455088 -1.0602849
-2.0393119 -6.6971235 -0.84873414
-1.762908 -5.1188154 0.65434784
-2.0493798 -6.7025156 -0.63071752
-2.0624125 -6.7279949 -0.41495261
-2.0694144 -6.7184458 -0.19723706
-2.0865815 -6.7582545 0.019796535
-2.0148466 -6.5967536 -1.4952787
-2.1028798 -6.7557459 0.23794669
-2.0299146 -6.3667917 0.42688203
-1.8771558 -5.6115856 0.54748994
-2.1354344 -6.7856021 0.9043014
-2.0664675 -6.6786466 -0.62940371
-1.6636845 -4.5499482 0.7128107
-2.0798235 -6.6999183 -0.41411591
-2.1175973 -6.7199864 0.23597381
-2.0471497 -6.6048598 -1.2760243
-2.0575483 -6.6114936 -1.057254
-1.8996458 -5.6271644 0.549128
-2.0719652 -6.6376534 -0.84314948
-1.7812966 -5.0523043 0.64438087
-2.0834053 -6.6547313 -0.62808758
-2.1091261 -6.691731 -0.19806844
-1.5699747 -4.0085459 0.86519778
-2.1209285 -6.7101665 0.018229829
-1.5128878 -3.7319047 0.91218686
-2.0516264 -6.5611591 -1.489987
-2.1365254 -6.6995955 0.2346247
-2.0632677 -6.5733719 -1.2710452
-2.0752392 -6.3775611 0.42711174
-2.0750451 -6.5916171 -1.0552177
-1.9188265 -5.6311855 0.54946399
-1.7890053 -5.0101724 0.63807726
-2.1136601 -6.6518893 -0.41287792
-1.6138757 -4.1723938 0.77441347
-2.1243198 -6.6598287 -0.19791502
-2.0673325 -6.5338836 -1.4849613
-2.0805955 -6.5535655 -1.2684557
-2.0899394 -6.5601249 -1.0511646
-2.1053078 -6.5898829 -0.83911842
-2.1548553 -6.6577611 0.016617183
-2.0840881 -6.5122709 -1.4813502
-2.1736293 -6.6669116 0.23232198
-2.1143792 -6.3689704 0.42588213
-2.1217537 -6.5659328 -0.83709908
-1.8227454 -5.0169287 0.63913906
-2.1291986 -6.5591731 -0.62178314
-1.7212123 -4.5495629 0.71324009
-2.14516 -6.595892 -0.41111687
-2.1575799 -6.611536 -0.19806416
-2.1656044 -6.6123333 0.015753059
-2.1874344 -6.6351376 0.23055834
-2.1121829 -6.5063887 -1.2616208
-2.1208262 -6.5047479 -1.0443912
-1.9721473 -5.6234422 0.54825366
-2.1370203 -6.5421753 -0.83504468
-2.1597621 -6.5639448 -0.40997434
-2.1720581 -6.5836644 -0.19798446
-1.618569 -4.0057464 0.86570221
-2.1123962 -6.4520721 -1.4698323
-2.2020841 -6.6030984 0.22876583
-1.853134 -5.0120497 0.63848072
-2.1675942 -6.5422721 -0.62226158
-2.1758068 -6.5438795 -0.40956685
-1.6638088 -4.1652007 0.77371877
-2.1873977 -6.5555239 -0.19793412
-1.5691292 -3.7272253 0.91271633
-2.2192719 -6.5827022 0.22746009
-2.1442044 -6.4588218 -1.2548079
-2.1799867 -6.3785238 0.42577881
-2.1709449 -6.501801 -0.83206421
-1.8707765 -5.0181022 0.6394363
-2.1827548 -6.5142183 -0.62053418
-1.7702198 -4.5726366 0.71801293
-1.6762087 -4.1623073 0.77332419
-2.1993666 -6.5137229 -0.19746594
-2.2189364 -6.5590105 0.013558683
-2.2354071 -6.5583701 0.22599564
-2.1608703 -6.4387965 -1.2522086
-2.1679478 -6.4351058 -1.0365312
-2.0301566 -5.638526 0.54968715
-1.780074 -4.556149 0.7150926
-2.2123411 -6.514792 -0.40958652
-2.2170784 -6.4971933 -0.19776373
-2.1612072 -6.3926811 -1.4603573
-2.1764121 -6.4189668 -1.2495753
-2.2200167 -6.3772125 0.42515892
-2.2132797 -6.470119 -0.61819667
-1.6656891 -3.9986379 0.86521703
-2.1747904 -6.3653955 -1.4552789
-2.265162 -6.5100908 0.22314088
-2.1936502 -6.4067192 -1.2485634
-2.2020547 -6.4086256 -1.0347213
-2.0643802 -5.6343532 0.54905856
-2.2198071 -6.4452462 -0.82805181
-1.9186494 -5.0208597 0.64002788
-2.2298265 -6.4497004 -0.61725628
-1.7149898 -4.1650386 0.77472621
-2.2678156 -6.4999099 0.011411365
-1.6153539 -3.7319486 0.91584331
-2.1929057 -6.3489308 -1.4531052
-2.2620962 -6.3751249 0.42446506
-2.2184391 -6.3842788 -1.0320241
-2.2344115 -6.4130564 -0.82497525
-1.8225726 -4.5538831 0.71521646
-2.258302 -6.4419394 -0.40763345
-2.2690914 -6.4494905 -0.19867857
-2.2090123 -6.3288822 -1.4499501
-2.2973928 -6.4609103 0.22019789
-2.2243857 -6.3546929 -1.2409484
-2.2346158 -6.3639688 -1.0299673
-1.9496495 -5.011097 0.63872355
-2.259692 -6.3930316 -0.61380661
-2.2765758 -6.4291129 -0.40776768
-2.2998612 -6.4547849 0.009918998
-2.2273295 -6.3182225 -1.4491657
-2.3137407 -6.4443913 0.21909644
-2.3012202 -6.361145 0.4228687
-2.1227076 -5.6402297 0.54951704
-2.2638626 -6.3647327 -0.82086295
-1.9637185 -5.0054717 0.63796341
-2.2718766 -6.3611746 -0.61162823
-2.2928054 -6.408494 -0.407381
-2.2986696 -6.400743 -0.19874901
-1.7129433 -3.9868257 0.86369038
-2.3141747 -6.4263515 0.0091485959
-2.2422442 -6.298336 -1.4459761
-2.2524891 -6.3030357 -1.2332571
-2.3232639 -6.3637013 0.42281154
-2.2597883 -6.3005509 -1.0217587
-1.9841061 -5.020647 0.64033705
-1.8647985 -4.5471773 0.71459103
-1.765536 -4.1562662 0.77397001
-2.316752 -6.3877974 -0.19916071
-2.3247678 -6.3843455 0.008318604
-1.6659518 -3.7468257 0.92226624
-2.2542005 -6.2590733 -1.4380991
-2.3461294 -6.4029613 0.21651596
-2.2682519 -6.2827249 -1.2306434
-2.3520043 -6.3912315 0.42467931
-2.275511 -6.2760625 -1.019049
-2.3167861 -6.3362422 -0.40451202
-2.3376496 -6.3520021 0.0075394497
-2.2707598 -6.2426286 -1.435886
-2.2848642 -6.2621145 -1.2280596
-2.3726172 -6.3836994 0.423839
-2.1793826 -5.6418285 0.54954278
-2.308387 -6.2875133 -0.81421578
-2.0192432 -5.0256991 0.64131397
-2.3213596 -6.3029327 -0.60920274
-2.3324945 -6.3114028 -0.40388697
-2.3423343 -6.3189859 -0.19867073
-2.3769164 -6.3533797 0.21359731
-2.3832417 -6.3436599 0.42051658
-2.3105676 -6.246285 -1.0169773
-2.3259387 -6.2704659 -0.81327456
-2.0314631 -5.0101027 0.63908881
-1.9145336 -4.5644841 0.7185508
-1.8127936 -4.1780548 0.77991855
-2.3578963 -6.294066 -0.19874124
-1.7696042 -4.0038924 0.86997718
-2.3732538 -6.3217187 0.0061128861
-2.3006246 -6.2023563 -1.4295224
-2.3127728 -6.2139874 -1.2211605
-2.3219559 -6.2186594 -1.0134875
-2.2178092 -5.6478891 0.55015516
-2.3414915 -6.257998 -0.81277567
-2.3637128 -6.2780943 -0.40354839
-2.3676991 -6.2602849 -0.1984033
-2.3857856 -6.2975411 0.0054416447
-1.7128711 -3.7481277 0.92475778
-2.3143437 -6.176404 -1.4249263
-2.4062493 -6.3121796 0.21109994
-2.4125204 -6.302526 0.4169054
-2.3325243 -6.1809735 -1.0083618
-2.0670657 -5.0249414 0.64156008
-2.3668473 -6.2451086 -0.60666513
-2.3780317 -6.2534108 -0.40288404
-1.8487409 -4.2168016 0.78931922
-2.3264341 -6.1488199 -1.4198192
-2.4206364 -6.2874041 0.20966621
-2.3732035 -6.2244759 -0.81079179
-2.3933768 -6.2366595 -0.402711
-1.8656847 -4.2282805 0.79228675
-2.4214537 -6.2730203 0.0040772776
-2.4337668 -6.2587552 0.20808072
-2.3603199 -6.1640782 -1.2157048
-2.365788 -6.1552095 -1.0068917
-2.2695203 -5.6333923 0.54843855
-2.3861818 -6.1960664 -0.80818999
-2.4004295 -6.2149372 -0.60594797
-1.9715431 -4.560822 0.71889728
-2.4205325 -6.2267241 -0.19976296
-1.8201052 -4.0078726 0.87288356
-2.4400182 -6.2635603 0.0034063733
-2.3572547 -6.1117539 -1.4144216
-2.3741705 -6.1397266 -1.212261
-2.4635184 -6.2569523 0.41272622
-2.1120486 -5.0080328 0.63945317
-2.4132545 -6.1863885 -0.6041767
-2.4267006 -6.2021918 -0.40245903
-1.9026451 -4.2603827 0.800322
-2.4333436 -6.1980529 -0.19966495
-1.7627488 -3.7559292 0.92943758
-2.3750412 -6.0984879 -1.4131821
-2.465132 -6.2205625 0.2056904
-2.4169579 -6.1541319 -0.80517644
-2.4236786 -6.150176 -0.60159397
-1.9188429 -4.2658267 0.80198598
-2.4690816 -6.2176027 0.0019641949
-2.3885629 -5.7659597 1.5403512
-2.4821851 -6.203032 0.20454171
-2.404546 -6.0981784 -1.207032
-2.4884946 -6.1976609 0.40774864
-2.4114783 -6.0946755 -1.0010209
-2.3274133 -5.6330757 0.54837781
-2.1491852 -5.0177488 0.64124846
-2.4662251 -6.1633544 -0.2002449
-2.4782479 -6.1773281 0.0011856043
-2.4036024 -6.0555735 -1.4063452
-2.4192293 -6.0815301 -1.2051846
-2.453496 -6.0124288 0.39335793
-2.443063 -6.1050181 -0.80100381
-2.1672566 -5.0247335 0.64246458
-2.4517858 -6.104434 -0.59924406
-2.0265503 -4.5446372 0.71704894
-2.4675982 -6.1276326 -0.40042925
-1.8720881 -4.008719 0.87521094
-2.4344227 -5.9628658 -0.00018575245
-1.8106004 -3.7938058 0.94281816
-2.4170291 -6.0352821 -1.4031302
-2.3407357 -5.6048837 0.17985441
-2.4264002 -6.0364089 -1.197229
-2.3551149 -5.6253996 0.36354434
-2.4111891 -5.9589295 -0.9797796
-2.3697202 -5.649405 0.55024028
-2.3333044 -5.6703625 -0.74021578
-2.3121142 -5.5729275 -0.54398084
-2.3224373 -5.5835848 -0.36352512
-1.964613 -4.2806611 0.80662251
-2.332372 -5.5898485 -0.18288116
-2.3457475 -5.6072783 -0.0019799026
-1.8257844 -3.8032348 0.94634068
-2.2781706 -5.5029945 -1.2686318
-2.282109 -5.4889102 -1.0795219
-2.3654523 -5.5971947 0.36120379
-2.2950554 -5.5080805 -0.89993805
-2.3771868 -5.6117578 0.54598677
-2.3110287 -5.5341868 -0.72203892
-2.1968172 -5.01157 0.64085281
-2.3188195 -5.5333991 -0.5409143
-2.3402066 -5.5539699 -0.18245062
-2.3724449 -5.5846567 0.17829546
-2.3222187 -5.5099607 -0.71989632
-2.2145531 -5.0143471 0.64146644
-2.0748489 -4.5544963 0.71988732
-2.3473938 -5.542439 -0.36256158
-2.3696339 -5.5621753 -0.0032676929
-2.2987592 -5.4497886 -1.2587885
-2.3088157 -5.455966 -1.0757505
-2.3892252 -5.552155 0.3574065
-2.314853 -5.4523482 -0.89289778
-2.2323256 -5.0170536 0.64207709
-2.3572893 -5.5142117 -0.36154142
-2.0156801 -4.3077512 0.81415862
-2.3660312 -5.5165386 -0.18272468
-1.9212735 -3.9995596 0.87506425
-2.3056381 -5.4129672 -1.2512312
-2.398447 -5.5471039 0.17605789
-2.3231905 -5.4431801 -1.0746827
-2.4183502 -5.561295 0.54034168
-2.344147 -5.4614539 -0.7156015
-2.368217 -5.489779 -0.36078492
-2.3793859 -5.4996819 -0.18292311
-2.3204329 -5.4020929 -1.250365
-2.4177814 -5.5262642 0.35509729
-2.26473 -5.0149837 0.64218229
-2.3671584 -5.4533834 -0.53690195
-2.116606 -4.54531 0.71920115
-2.3998592 -5.4832215 -0.0051802672
-1.8851656 -3.7985671 0.94834602
-2.4231479 -5.5097084 0.17385745
-2.3449404 -5.3991103 -1.0684114
-2.427377 -5.4979653 0.35277256
-2.3520586 -5.398972 -0.88775134
-2.3682988 -5.4244661 -0.7129038
-2.3937337 -5.456316 -0.36030841
-2.3962402 -5.4395514 -0.18238005
-2.4155214 -5.4738851 -0.0057750088
-1.893829 -3.7876434 0.9457379
-2.3637145 -5.3785348 -0.88558537
-2.4628305 -5.5258851 0.53644961
-2.0703297 -4.3023281 0.81492537
-1.9723266 -3.997226 0.87687159
-2.4286079 -5.4569101 -0.0063891322
-2.3576396 -5.3510137 -1.2429471
-2.3718557 -5.3695769 -1.0654459
-2.4536958 -5.4640255 0.34986484
-2.3764791 -5.3618169 -0.88410205
-2.4735568 -5.5013447 0.53371918
-2.4015532 -5.4134316 -0.7140578
-2.3183904 -5.0222912 0.64398187
-2.4098392 -5.4141455 -0.53618962
-2.4184358 -5.4186664 -0.35958508
-2.4246233 -5.4132524 -0.18302085
-2.3691044 -5.3307633 -1.239682
-2.4600022 -5.4510956 0.1704531
-2.3858032 -5.3566141 -1.0643728
-2.467998 -5.4507818 0.34870094
-2.4143808 -5.3965549 -0.71299356
-2.4239209 -5.4009848 -0.5359509
-2.1707387 -4.5252428 0.71694797
-2.4299815 -5.3979101 -0.35908538
-2.3804469 -5.310492 -1.2364143
-2.4631665 -5.4056764 0.1683117
-2.4945533 -5.4522195 0.52826834
-2.3491178 -5.0118508 0.64290845
-2.1115248 -4.2966447 0.81525701
-2.0168159 -4.0108218 0.88246059
-2.4731455 -5.4228058 -0.0081856828
-1.9445913 -3.7907996 0.94974166
-2.4924324 -5.4128728 0.34551463
-2.4230824 -5.3375912 -0.88444793
-2.4397407 -5.3627086 -0.71086049
-2.3631365 -5.0028162 0.64180589
-2.4640291 -5.3659501 -0.18371364
-2.4885294 -5.4132371 -0.0087802662
-2.4246805 -5.3100843 -1.059502
-2.5202656 -5.4180317 0.52453226
-2.4578915 -5.338716 -0.53276765
-2.2156196 -4.5222139 0.7176162
-2.4717641 -5.3581147 -0.35920066
-2.4778657 -5.3526306 -0.18403015
-2.4213469 -5.2715726 -1.2323588
-2.5150731 -5.3711023 0.34205076
-2.4440284 -5.2926574 -0.87941188
-2.5329733 -5.4008913 0.52266651
-2.468637 -5.3399587 -0.71036965
-2.4702876 -5.3216715 -0.53211254
-2.5084093 -5.3638115 -0.010024499
-2.4335597 -5.2548566 -1.2300451
-2.5235984 -5.3654337 0.16530955
-2.5275619 -5.3539381 0.34060797
-2.4757242 -5.3079772 -0.70709902
-2.4225624 -5.0238118 0.64581317
-2.483917 -5.3083467 -0.53186738
-2.2428756 -4.512516 0.71665126
-2.1723294 -4.3042603 0.81930673
-2.0648861 -3.9959347 0.88127387
-2.5194781 -5.3428459 -0.010635084
-1.9862753 -3.7679398 0.94595885
-2.534652 -5.3444543 0.16414006
-2.4614539 -5.2595725 -1.0537945
-2.4710412 -5.2662206 -0.87780535
-2.5526099 -5.351584 0.5172444
-2.4352012 -5.0108232 0.64414167
-2.510181 -5.310462 -0.3587639
-2.5175793 -5.308681 -0.18484202
-2.0033889 -3.7801304 0.95055002
-2.4695559 -5.2316256 -1.0494119
-2.4857726 -5.2566538 -0.87768954
-2.567734 -5.3418307 0.51623213
-2.2769773 -4.5231633 0.71955448
-2.5209827 -5.289516 -0.35825118
-2.0139091 -3.776274 0.95017427
-2.4714615 -5.2121377 -1.2249898
-2.5583522 -5.3102345 0.16212742
-2.4793577 -5.2113314 -1.0466486
-2.5586157 -5.2916598 0.33549583
-2.5085831 -5.2495914 -0.70274013
-2.4692674 -5.0109725 0.64475805
-2.5076771 -5.2276597 -0.5265286
-2.2144673 -4.3013411 0.82045954
-2.5368154 -5.2632647 -0.18476602
-2.554492 -5.2916818 -0.012378293
-2.5710545 -5.2969804 0.16128244
-2.5720799 -5.2781334 0.3343446
-2.497982 -5.1933031 -0.86915481
-2.5210645 -5.2364831 -0.70218319
-2.5222604 -5.2179728 -0.52668858
-2.3035588 -4.5132923 0.71860129
-2.5441933 -5.2553501 -0.35773754
-2.1164756 -3.9934835 0.88351458
-2.5651054 -5.2706294 -0.01298002
-2.0306025 -3.7557032 0.94552898
-2.4870284 -5.1565824 -1.2145717
-2.586282 -5.2642632 0.33316484
-2.5132117 -5.1833591 -0.86906266
-2.6048932 -5.2940221 0.5111137
-2.5309145 -5.2116055 -0.70002627
-2.5347986 -5.2004886 -0.52604997
-2.3291972 -4.5372953 0.72367233
-2.5627751 -5.2321525 -0.18527758
-2.5749748 -5.2455168 -0.01361208
-2.5909016 -5.2467432 0.15861806
-2.5153158 -5.1601677 -1.04094
-2.6177084 -5.2763748 0.50923043
-2.5202727 -5.0044355 0.64475548
-2.5615118 -5.2018275 -0.35589856
-2.5687923 -5.1998973 -0.1849051
-2.0644248 -3.7757404 0.95355821
-2.5114729 -5.1264725 -1.2108834
-2.6120346 -5.2373319 0.3308953
-2.5383685 -5.1568637 -0.86741132
-2.6287975 -5.2593231 0.50740778
-2.5614634 -5.1774921 -0.52592564
-2.3775382 -4.5820355 0.73316598
-2.2701929 -4.2927394 0.82110631
-2.5954633 -5.2055097 -0.014770643
-2.6171117 -5.2237716 0.15708132
-2.6208255 -5.2125173 0.3289021
-2.5606561 -5.149229 -0.69507998
-2.5888216 -5.1621156 -0.18504454
-2.1817014 -4.020402 0.89392769
-2.5348105 -5.0965462 -1.207162
-2.6257904 -5.198904 0.15578759
-2.5547063 -5.1081948 -0.86160547
-2.5763326 -5.1430736 -0.69565189
-2.5705018 -5.001894 0.64537704
-2.4228494 -4.6150618 0.74051404
-2.5987997 -5.1616125 -0.35591379
-2.1906872 -4.0085216 0.89155459
-2.6236451 -5.1837201 -0.015937831
-2.0919242 -3.7505634 0.94850814
-2.5635602 -5.1035366 -1.0356983
-2.5659175 -5.0910397 -0.86009628
-2.661617 -5.2037072 0.50147164
-2.4464884 -4.6353402 0.74489987
-2.3169067 -4.2995796 0.82472175
-2.6129503 -5.1310725 -0.18550831
-2.5557575 -5.0589743 -1.2015324
-2.6448894 -5.1568899 0.15352219
-2.6148784 -5.1307316 -0.52570176
-2.4694903 -4.6515775 0.74855721
-2.6184177 -5.1194053 -0.35484785
-2.6500702 -5.1602254 -0.017076079
-2.7352791 -5.2385311 1.4126508
-2.5688753 -5.0494933 -1.2011017
-2.6688008 -5.1504664 0.32379267
-2.6136074 -5.1025372 -0.69401228
-2.618597 -4.9911504 0.64483625
-2.6260486 -5.1133313 -0.52502644
-2.631031 -5.1056805 -0.35486686
-2.6359553 -5.1002307 -0.1859381
-2.6628313 -5.1464105 -0.01765948
-2.1138225 -3.7127469 0.93960214
-2.663523 -5.112658 0.1511686
-2.5960484 -5.0524282 -1.0299014
-2.6092761 -5.0650067 -0.86041385
-2.6988451 -5.1586075 0.49677953
-2.5098128 -4.6691823 0.75307399
-2.3638003 -4.3037801 0.82787347
-2.2599263 -4.0412402 0.90383804
-2.6868432 -5.1225052 0.15118819
-2.6172082 -5.0404286 -0.85751224
-2.5270307 -4.6705899 0.75393718
-2.6662943 -5.0834136 -0.18697891
-2.6850586 -5.1112914 -0.018823283
-2.6036735 -5.0015836 -1.1950846
-2.6221879 -5.0288973 -1.0285417
-2.7052436 -5.1052279 0.32009184
-2.7149825 -5.1088467 0.49143159
-2.6510077 -5.0613894 -0.69239366
-2.66819 -4.9813852 0.64453065
-2.6589644 -5.0609946 -0.52298975
-2.5411868 -4.664681 0.75341052
-2.6715007 -5.0716715 -0.35547778
-2.2794325 -4.022614 0.90055436
-2.1531501 -3.7151797 0.94335258
-2.6135941 -4.9847879 -1.1927159
-2.7161837 -5.0876408 0.3186754
-2.6712756 -5.047174 -0.52272612
-2.6830754 -5.0581303 -0.3554655
-2.6902726 -5.0559998 -0.18754223
-2.1647646 -3.712359 0.94349778
-2.7172825 -5.0663528 0.14808601
-2.6420522 -4.990778 -1.0238501
-2.6576524 -5.0105963 -0.85710436
-2.670959 -5.0228453 -0.68963653
-2.5702214 -4.654521 0.75270063
-2.4208508 -4.296804 0.82929862
-2.7223768 -5.0694766 -0.02056017
-2.1818004 -3.7218134 0.94749272
-2.6406713 -4.9648147 -1.1919049
-2.7295864 -5.0523849 0.14723012
-2.7314146 -5.0377579 0.31474036
-2.6651459 -4.9859552 -0.85419363
-2.6815443 -5.005372 -0.68853372
-2.7169807 -4.9692454 0.64393169
-2.6862969 -4.9974899 -0.51967669
-2.7131467 -5.0244637 -0.18798907
-2.3198314 -4.0180511 0.90211254
-2.7299008 -5.0444608 -0.021130772
-2.1926692 -3.7171307 0.94708407
-2.7450113 -5.0457134 0.14664942
-2.6676104 -4.9669933 -1.0224832
-2.6724923 -4.9613147 -0.85127908
-2.765486 -5.0570016 0.48621038
-2.7321665 -4.9626622 0.64335954
-2.718087 -5.0126824 -0.35522804
-2.7236576 -5.0068235 -0.18813936
-2.6779807 -4.9496565 -1.0205483
-2.6165802 -4.6472912 0.75320905
-2.4689946 -4.301497 0.83281535
-2.6740012 -4.9185133 -1.1863221
-2.7636631 -5.0069757 0.14456092
-2.7686234 -4.9997253 0.31165022
-2.7103648 -4.9495378 -0.68462551
-2.7706454 -4.9695449 0.64528227
-2.7213645 -4.9560847 -0.51883751
-2.370151 -4.0362482 0.90994167
-2.7638214 -4.9989986 -0.022819579
-2.2182398 -3.6891038 0.94148082
-2.6795483 -4.8926902 -1.1815181
-2.6929762 -4.9045067 -1.0141398
-2.7996023 -5.0115047 0.48158449
-2.7189436 -4.928371 -0.68295437
-2.7841938 -4.9591675 0.64415222
-2.7491043 -4.9596987 -0.35441339
-2.7489371 -4.9431787 -0.18811917
-2.7859075 -4.9570222 0.30829293
-2.7131855 -4.8915763 -0.84517086
-2.8123794 -4.9970345 0.48014405
-2.815841 -4.988369 0.64909387
-2.7334981 -4.9027004 -0.51533633
-2.6669681 -4.6463776 0.75505388
-2.7625191 -4.9492774 -0.35470471
-2.5165913 -4.3038106 0.83589435
-2.7630498 -4.9324288 -0.18857691
-2.779376 -4.952548 -0.023938542
-2.2494719 -3.7003686 0.94724607
-2.8001809 -4.964283 0.14198001
-2.7152936 -4.8729739 -1.0111177
-2.7462254 -4.9073462 -0.68299896
-2.8227086 -4.9613166 0.64544767
-2.5377438 -4.3156838 0.83953196
-2.7730486 -4.9147005 -0.18871696
-2.7108357 -4.8401728 -1.174512
-2.8118231 -4.9320536 0.30628619
-2.7353001 -4.859849 -0.84283274
-2.8302269 -4.953908 0.47564518
-2.7749817 -4.8953247 -0.35275692
-2.4265337 -4.0298672 0.91239786
-2.798476 -4.913012 -0.025083546
-2.2682822 -3.6832941 0.94420427
-2.7214546 -4.8267231 -1.1730989
-2.8168955 -4.9214001 0.13974878
-2.7381496 -4.8452411 -1.0088984
-2.7610061 -4.8612981 -0.67907971
-2.7736773 -4.8711395 -0.51580042
-2.7209017 -4.6519752 0.7582531
-2.5686119 -4.3143716 0.84101355
-2.8260181 -4.9039178 0.13879973
-2.8325837 -4.9004159 0.30379423
-2.7749467 -4.8547907 -0.67961854
-2.8529029 -4.9102359 0.63905191
-2.7876663 -4.8646035 -0.51634127
-2.747714 -4.6720648 0.76286709
-2.8000095 -4.85814 -0.18895054
-2.8258476 -4.8958387 -0.026200233
-2.7448366 -4.8029332 -1.1712711
-2.7567012 -4.8106394 -1.0049715
-2.7627773 -4.8079214 -0.83816457
-2.8705626 -4.9263015 0.47313166
-2.8764448 -4.9210424 0.6412189
-2.762876 -4.6692724 0.76303267
-2.8128119 -4.8644242 -0.35355979
-2.6074109 -4.3307385 0.84663302
-2.811305 -4.8439679 -0.18922848
-2.4630473 -4.019206 0.91252404
-2.3128347 -3.6964078 0.95176268
-2.7671301 -4.7970328 -1.0038294
-2.8643427 -4.8942389 0.30323875
-2.77632 -4.662879 0.76250964
-2.8411143 -4.8553925 -0.02724112
-2.7590275 -4.7618036 -1.1645408
-2.8683074 -4.8816533 0.13705646
-2.8966095 -4.923038 0.30536976
-2.9155834 -4.9467063 0.47591767
-2.9353359 -4.9697609 0.64970934
-2.8182456 -4.8192372 -0.51501799
-2.8680046 -4.8735347 -0.027871503
-2.7716439 -4.7514114 -1.1641241
-2.9049842 -4.9194422 0.13811852
-2.9264772 -4.9462833 0.30708402
-2.9481757 -4.9751492 0.479424
-2.819109 -4.8008103 -0.67760509
-2.9627631 -4.9873047 0.65295196
-2.813278 -4.6669402 0.76483572
-2.8755651 -4.8685298 -0.19273481
-2.9340253 -4.9408741 0.13857855
-2.9547703 -4.9657917 0.30851883
-2.8267679 -4.7968025 -0.84352624
-2.9757032 -4.9927154 0.48169205
-2.8508117 -4.8294053 -0.68382287
-2.8664186 -4.8444672 -0.52085006
-2.8858006 -4.8690972 -0.35838738
-2.6859176 -4.3624024 0.85781783
-2.4794452 -3.9358382 0.89391696
-2.9345837 -4.9345393 -0.029217985
-2.9614697 -4.9585733 0.13889942
-2.8375652 -4.7976432 -1.0127758
-2.978786 -4.9762211 0.30927119
-2.8766601 -4.8453722 -0.68807214
-3.0224969 -5.0308356 0.6607818
-2.9269402 -4.9155416 -0.36329007
-2.9298062 -4.9042411 -0.19597876
-2.9655652 -4.959394 -0.029893972
-2.3790967 -3.6963263 0.95787442
-2.8371985 -4.7775636 -1.178984
-2.9845994 -4.9671898 0.13888776
-2.8665724 -4.8203635 -1.0204901
-2.8850725 -4.8426685 -0.85662645
-3.0329905 -5.0309858 0.48661301
-2.9140127 -4.8843007 -0.69600749
-2.9220865 -4.8834872 -0.52841753
-2.8609796 -4.6566172 0.76521999
-2.9642792 -4.9362016 -0.19820987
-2.5273771 -3.9727635 0.90640575
-2.9895892 -4.9697738 -0.030540075
-2.8634899 -4.7947788 -1.1863898
-3.0203996 -5.0006938 0.13977653
-3.0433154 -5.028791 0.31317672
-2.9136264 -4.8636041 -0.86283791
-3.0811443 -5.0702167 0.66802955
-2.9634717 -4.9294734 -0.53542417
-2.8804679 -4.6600709 0.76671255
-2.98348 -4.9542012 -0.3688055
-2.7367396 -4.3655477 0.86160433
-3.0209174 -4.9943242 -0.031233627
-2.896807 -4.8257647 -1.1977125
-3.048315 -5.0179596 0.14007294
-2.9251282 -4.865344 -1.0359458
-3.076802 -5.0565948 0.31524816
-2.9458671 -4.891438 -0.87046754
-3.0909183 -5.0686693 0.49150077
-2.9683168 -4.9190397 -0.70511532
-2.7435439 -4.3467484 0.85821098
-3.0186098 -4.9692454 -0.20142934
-2.5517268 -3.9626598 0.90595186
-2.4113791 -3.6801043 0.95659292
-2.9268985 -4.8496251 -1.207091
-3.0818453 -5.0457582 0.14074676
-3.1041212 -5.0717969 0.31637183
-2.96859 -4.8997512 -0.87422931
-3.126508 -5.0996647 0.49535573
-3.1440954 -5.1160307 0.67633361
-3.0184841 -4.9639831 -0.54261929
-2.9195936 -4.6667185 0.76968628
-3.0316093 -4.9744983 -0.37290344
-2.5625274 -3.9549615 0.90500641
-3.0805135 -5.0358071 -0.032627385
-2.9571805 -4.8733234 -1.2164791
-3.1137612 -5.0698247 0.14128186
-2.9826398 -4.9062128 -1.050595
-3.1269796 -5.0780053 0.31682011
-2.995852 -4.9167342 -0.87976056
