# This PCD file was generated using the MATLAB® pcwrite function
# from Computer Vision System Toolbox®.
# .PCD v.7 - Point Cloud Data file format
VERSION .7
FIELDS x y z
SIZE 4 4 4
TYPE F F F
COUNT 1 1 1
WIDTH 1693
HEIGHT 1
VIEWPOINT 0 0 0 1 0 0 0
POINTS 1693
DATA ascii
-7.245873 -2.030389 1.354590
4.245216 -1.540736 1.353989
-7.503225 -0.769478 1.354339
-7.521637 -0.489082 1.354687
3.995063 -0.090352 1.354587
-6.021615 0.064636 1.354741
-5.742829 0.074878 1.354487
4.000196 0.110319 1.354599
-5.051704 0.142871 1.354141
3.183279 0.989395 1.354854
2.632665 1.038864 1.354934
1.929085 1.235441 1.354406
2.855454 1.260756 1.354414
3.823093 1.259926 1.354428
2.204185 1.348343 1.354071
3.616430 1.409371 1.354578
3.797496 1.431423 1.354188
3.368734 1.443250 1.354222
2.976991 1.456730 1.354879
-5.909905 -5.623018 1.355316
-6.333877 -5.399374 1.355896
-1.948932 -5.239118 1.355228
-1.284168 -5.087749 1.355331
-0.063795 -4.896619 1.355939
-0.029291 -4.842469 1.355982
1.446256 -4.811728 1.355983
1.494160 -4.799146 1.355811
-3.108663 -4.704145 1.355632
0.366577 -4.698938 1.354993
-6.668849 -4.597328 1.355919
1.036436 -4.345305 1.355164
1.079628 -4.336903 1.355750
0.510363 -4.329175 1.355051
0.449083 -4.325267 1.355501
0.938950 -4.296148 1.355491
1.050265 -4.290495 1.355892
0.955944 -4.235077 1.355224
-6.800219 -3.733320 1.355215
4.465510 -3.073123 1.355386
4.319805 -2.317179 1.355586
-7.078229 -2.212314 1.355985
-7.318104 -2.125289 1.355321
1.607029 -2.107350 1.355909
4.295815 -1.749033 1.355981
-7.517668 -0.515208 1.355523
4.001240 -0.409442 1.355282
-6.702136 -0.027007 1.354989
-5.901364 -0.011322 1.355254
4.002304 0.096307 1.355235
4.003642 0.138936 1.355104
-2.115790 0.674101 1.355092
3.206580 1.095404 1.355842
1.533372 1.165134 1.355212
1.324831 1.188209 1.355635
2.178663 1.210838 1.355763
2.850753 1.227318 1.355301
2.061071 1.320209 1.355324
3.064568 1.359454 1.355577
3.383583 1.456340 1.355839
-4.231620 -5.594796 1.356718
-4.218319 -5.527564 1.356326
-0.546327 -4.972056 1.356661
-2.395573 -4.735511 1.356628
1.022706 -4.351761 1.356145
0.787753 -4.307382 1.356773
0.815139 -4.305440 1.356477
4.027857 -3.647054 1.356794
-6.941751 -3.455787 1.356542
-7.077230 -3.116226 1.356085
4.455582 -2.954622 1.356649
-7.152880 -2.774499 1.356918
4.426929 -2.693990 1.356259
4.383072 -2.290625 1.356114
1.801848 -2.221917 1.356453
1.600218 -2.114260 1.356308
-7.101257 -1.772076 1.356305
-7.320145 -1.732375 1.356099
4.221515 -1.406766 1.356364
-7.493298 -0.593421 1.356533
-7.501512 -0.567398 1.356203
-7.517575 -0.541345 1.356842
4.006478 0.038915 1.356957
4.004571 0.052937 1.356314
-4.926325 0.236973 1.356729
-6.259899 0.321294 1.356277
-3.826063 0.426623 1.356178
-1.692169 0.752526 1.356973
2.322371 1.004272 1.356619
3.822304 1.139388 1.356401
2.152872 1.146660 1.356898
3.458490 1.183924 1.356486
3.466585 1.204907 1.356397
2.858090 1.247232 1.356040
3.792764 1.385923 1.356103
2.932905 1.389112 1.356405
3.344603 1.403083 1.356494
3.281253 1.425690 1.356931
-5.880756 -5.627806 1.357592
-3.937101 -5.522664 1.357450
-5.435435 -5.509797 1.357257
-6.275839 -5.381779 1.357638
-1.854569 -5.202249 1.357217
-6.746948 -5.165118 1.357136
-2.387005 -5.140767 1.357251
-1.459875 -5.081091 1.357418
-0.591156 -4.989084 1.357163
-1.212143 -4.920132 1.357765
-0.283314 -4.893946 1.357921
-2.471333 -4.867290 1.356994
1.463221 -4.811315 1.357011
2.415830 -4.440202 1.357163
0.807894 -4.407306 1.357885
1.008933 -4.358175 1.357114
1.109139 -4.334795 1.357280
0.871784 -4.308525 1.357706
0.968801 -4.304558 1.357928
0.995652 -4.301493 1.357599
3.838252 -4.275205 1.357164
-6.667461 -3.938161 1.357240
-6.975887 -3.874345 1.357318
4.472784 -3.412478 1.357559
4.525961 -3.007374 1.357117
4.526026 -3.007105 1.357355
4.219741 -2.216678 1.357450
1.635595 -2.091341 1.357386
4.310785 -2.090868 1.357070
-7.255770 -1.747062 1.357079
-7.375630 -1.036956 1.357764
4.120004 -0.859503 1.357786
-7.530779 -0.516442 1.357329
3.970971 -0.132408 1.357682
-7.507629 -0.035966 1.357363
-5.734523 0.156716 1.357193
-5.734442 0.156922 1.357399
-4.793232 0.288988 1.357427
-4.151187 0.358703 1.357871
2.324497 0.991940 1.357837
0.314358 0.998008 1.357500
0.767197 1.112691 1.357217
1.724640 1.261588 1.357627
3.618629 1.391672 1.357075
-4.165613 -5.516155 1.358361
-5.291031 -5.478815 1.358620
-1.889433 -5.194857 1.358794
-1.455100 -5.157390 1.358665
-1.800814 -5.154004 1.358549
-1.539637 -5.118016 1.358405
-1.339316 -5.068299 1.358423
-0.561094 -4.984334 1.358060
-0.852422 -4.981734 1.358809
-0.399420 -4.936993 1.358913
-0.354836 -4.921894 1.358780
-0.079139 -4.904274 1.358116
-0.125024 -4.895607 1.358031
-0.268572 -4.892503 1.358557
0.006768 -4.842278 1.358846
1.513950 -4.805779 1.358934
1.561793 -4.792510 1.358585
1.578497 -4.787754 1.358434
1.610841 -4.780371 1.358633
0.447827 -4.753829 1.358861
-6.775054 -4.523992 1.358623
2.431375 -4.432075 1.358355
0.995116 -4.364546 1.358073
1.052967 -4.353797 1.358983
0.464626 -4.342234 1.358906
1.095499 -4.341485 1.358328
0.415611 -4.335343 1.358554
4.113037 -3.860044 1.358193
-6.972252 -3.530961 1.358081
4.463517 -3.254749 1.358747
-7.275479 -2.374740 1.358836
-7.060366 -2.229223 1.358167
-7.060395 -2.228956 1.358343
-7.311946 -2.146551 1.358959
1.908952 -1.874104 1.358446
4.291219 -1.766635 1.358495
-7.087516 -1.646922 1.358984
4.093607 -0.695857 1.358983
3.990627 -0.441673 1.358592
-6.992435 -0.136498 1.358562
0.892307 -0.018149 1.358498
-6.028858 0.080181 1.358655
-4.877967 0.168057 1.358409
-5.212634 0.185123 1.358543
-4.934490 0.215774 1.358594
-5.283349 0.408062 1.358308
-2.133170 0.665603 1.357999
2.334965 1.038416 1.358901
2.629546 1.104152 1.358984
1.183322 1.111460 1.358324
1.055736 1.126504 1.358828
1.416458 1.164967 1.358169
3.792701 1.393688 1.358842
2.862757 1.457730 1.358463
3.005484 1.461745 1.358885
-5.656836 -5.820534 1.359079
-5.851038 -5.627601 1.359061
-4.779178 -5.607950 1.359110
-4.198344 -5.586198 1.359466
-5.644796 -5.577860 1.359775
-6.707327 -5.452640 1.359651
-2.346001 -5.087855 1.359750
-0.501293 -4.970286 1.359020
-0.486442 -4.965660 1.359083
-0.553414 -4.915162 1.359051
-0.310804 -4.912276 1.359662
-0.109829 -4.903765 1.359169
1.596025 -4.788714 1.359881
-2.475576 -4.726177 1.359530
-6.684800 -4.531560 1.359265
1.067406 -4.350989 1.359178
0.391009 -4.335630 1.359276
0.845464 -4.318595 1.359906
0.901148 -4.313527 1.359227
0.916068 -4.313894 1.359485
4.046309 -4.140598 1.359771
-6.777090 -3.745053 1.359193
-7.172482 -3.339657 1.359856
4.446327 -2.864689 1.359791
-7.179203 -2.530728 1.359095
4.430759 -2.390610 1.359348
4.330947 -2.190973 1.359240
1.569311 -2.149994 1.359699
1.664155 -2.099380 1.359287
4.216223 -1.606259 1.359858
4.218421 -1.590218 1.359787
4.253113 -1.574072 1.359006
4.154864 -0.721492 1.359559
-7.508812 -0.619593 1.359800
-7.114221 -0.193289 1.359744
0.888560 -0.018055 1.359466
-3.561616 0.459770 1.359136
3.963726 0.643868 1.359711
-2.141569 0.661624 1.359435
-1.717335 0.732918 1.359060
2.323837 0.951102 1.359499
2.158611 1.032695 1.359448
2.337666 1.053832 1.359046
1.151646 1.119857 1.359765
2.859485 1.201627 1.359322
2.000353 1.232077 1.359822
2.082868 1.326270 1.359108
2.932837 1.394547 1.359952
-5.819550 -5.628861 1.360902
-5.693210 -5.596552 1.360948
-2.300786 -5.224449 1.360572
-2.017850 -5.179801 1.360254
-0.607483 -5.021484 1.360693
-0.457208 -4.964163 1.360540
-1.249313 -4.922785 1.360871
1.547943 -4.804407 1.360860
1.644818 -4.778300 1.360382
-2.528042 -4.656631 1.360247
0.380649 -4.341333 1.360833
0.404660 -4.341227 1.360155
1.168919 -4.329803 1.360193
0.709089 -4.325246 1.360816
0.750623 -4.325013 1.360880
-6.904158 -2.954780 1.360661
4.433439 -2.716307 1.360219
4.324319 -2.339289 1.360025
-7.357792 -1.533197 1.360817
-7.479387 -0.697308 1.360257
-7.491931 -0.671500 1.360440
-7.500416 -0.645586 1.360122
3.979743 -0.315479 1.360281
-7.508502 -0.037100 1.360765
4.017492 -0.016765 1.360428
4.019648 -0.002190 1.360651
3.971748 0.197223 1.360419
3.970104 0.244997 1.360174
3.919104 0.355358 1.360480
-3.852980 0.422446 1.360862
-3.093726 0.534119 1.360892
3.193339 1.053970 1.360960
3.615557 1.353595 1.360507
2.672922 1.368464 1.360620
-5.614606 -5.809258 1.361196
-5.740479 -5.613495 1.361845
-4.745121 -5.599811 1.361556
-3.899990 -5.441641 1.361179
-1.910160 -5.199275 1.361213
-2.431184 -4.961619 1.361802
-0.140565 -4.906957 1.361032
-0.209441 -4.888182 1.361352
-6.536602 -4.880427 1.361594
-2.951477 -4.683694 1.361722
0.443599 -4.436578 1.361356
1.140233 -4.339945 1.361171
-6.955103 -3.546729 1.361767
-6.935420 -3.303391 1.361061
4.478998 -3.099886 1.361147
-7.284666 -2.427854 1.361826
-7.153284 -2.211718 1.361062
-7.255443 -2.176330 1.361094
-7.281545 -1.931903 1.361714
-7.343548 -1.630638 1.361635
4.156298 -0.738682 1.361781
4.070450 -0.567422 1.361751
-5.179301 0.140343 1.361536
3.153092 0.925532 1.361485
1.370606 1.171199 1.361091
3.475004 1.175336 1.361279
1.160192 1.181254 1.361444
3.107822 1.324515 1.361106
3.772213 1.327199 1.361340
2.872191 1.446240 1.361646
-5.505767 -5.850019 1.362936
-5.569901 -5.794744 1.362926
-5.787922 -5.630177 1.362689
-2.427379 -5.122826 1.362628
-2.357165 -5.028535 1.362805
1.662974 -4.780850 1.362302
0.469982 -4.767393 1.362103
-6.759634 -4.541361 1.362252
2.647240 -4.389355 1.362513
0.370293 -4.347001 1.362385
1.155427 -4.340570 1.362495
0.696887 -4.333493 1.362810
1.184932 -4.334047 1.362697
4.034480 -3.669383 1.362465
-7.071362 -3.025632 1.362350
4.379816 -2.691618 1.362564
-7.016932 -2.346328 1.362875
4.391564 -2.309305 1.362260
1.827998 -2.213816 1.362458
1.847825 -1.943579 1.362830
-7.076023 -1.667733 1.362049
4.262673 -1.592182 1.362743
-7.482803 -0.833043 1.362361
-7.482629 -0.723364 1.362041
3.980023 -0.372045 1.362617
-6.685680 -0.089654 1.362938
-5.889379 -0.076102 1.362809
4.022262 -0.058303 1.362364
-2.617724 0.589399 1.362590
-2.610120 0.608114 1.362940
-1.746327 0.716967 1.362968
3.473630 1.158415 1.362475
2.868772 1.191912 1.362522
1.961675 1.241363 1.362395
2.542202 1.332060 1.362811
3.783585 1.355906 1.362754
-1.360578 -5.086787 1.363508
-1.388975 -5.048252 1.363964
-2.458694 -4.914837 1.363354
1.696458 -4.776564 1.363427
-2.684222 -4.739321 1.363837
3.889225 -4.294174 1.363668
1.157294 -4.192820 1.363595
-7.168471 -2.802742 1.363876
-6.934210 -2.558386 1.363711
4.296720 -2.151165 1.363018
1.608646 -2.035381 1.363070
1.864616 -1.850658 1.363758
-7.111941 -1.794741 1.363909
4.231390 -1.639715 1.363217
-7.374246 -1.129423 1.363496
4.028440 -0.043265 1.363460
-6.010389 -0.001363 1.363442
-5.733469 0.013225 1.363346
-6.115266 0.032802 1.363084
3.921286 0.338958 1.363314
3.871171 0.901868 1.363801
2.335916 0.944553 1.363503
0.462857 1.069471 1.363085
3.468891 1.139188 1.363241
3.130936 1.298799 1.363744
2.590690 1.301309 1.363429
2.115239 1.327364 1.363204
2.257708 1.329311 1.363794
2.241034 1.353554 1.363382
-5.527946 -5.783012 1.364922
-5.436893 -5.547216 1.364383
-4.098753 -5.516560 1.364253
-1.932387 -5.207266 1.364347
-6.795372 -5.177171 1.364542
-1.954591 -5.157073 1.364412
-0.156201 -4.918251 1.364035
-0.135885 -4.879182 1.364262
1.713511 -4.775244 1.364232
1.745813 -4.766935 1.364198
0.439614 -4.614085 1.364729
3.956665 -4.254281 1.364764
-6.963619 -3.893993 1.364162
-7.249423 -2.196330 1.364531
1.590787 -2.152410 1.364520
4.259840 -2.052942 1.364673
-7.393199 -1.059347 1.364102
-7.445843 -0.853291 1.364536
-7.456940 -0.827806 1.364507
-7.469932 -0.802317 1.364719
-7.480901 -0.775358 1.364612
-7.489746 -0.749593 1.364315
4.026673 -0.100602 1.364351
-2.629701 0.585157 1.364887
-2.159019 0.664752 1.364205
3.760439 1.290126 1.364888
3.624943 1.338751 1.364171
-4.091489 -5.547624 1.365322
-3.908751 -5.546066 1.365911
-6.188944 -5.373426 1.365099
-1.338402 -5.020071 1.365102
-0.521053 -4.991924 1.365790
-1.270825 -4.935232 1.365529
-0.203128 -4.916568 1.365595
-0.187731 -4.917177 1.365083
-0.061754 -4.907160 1.365044
-0.178244 -4.900334 1.365638
-0.120690 -4.881131 1.365533
-7.029396 -4.816263 1.365870
-6.641638 -4.752458 1.365135
-6.970223 -4.699274 1.365354
2.497953 -4.426476 1.365771
-6.789184 -4.390626 1.365515
0.768477 -4.343213 1.365380
-6.729958 -4.086435 1.365963
-6.772403 -3.768500 1.365309
4.385437 -3.594327 1.365592
-7.024965 -2.559116 1.365445
4.260700 -2.249653 1.365873
4.335969 -2.248994 1.365916
1.804595 -2.239519 1.365870
-7.220439 -2.209625 1.365203
-7.237833 -2.074817 1.365211
1.939698 -1.876751 1.365448
4.268359 -1.609421 1.365671
-7.413462 -0.980580 1.365049
-7.204657 -0.126778 1.365379
4.035409 -0.071037 1.365660
-6.760649 -0.034213 1.365682
-4.847212 0.286647 1.365510
-5.359571 0.416994 1.365650
-3.879896 0.418155 1.365544
-3.176346 0.522956 1.365680
3.972317 0.607563 1.365212
-1.757075 0.717429 1.365753
2.622919 0.972501 1.365126
2.154097 0.987091 1.365490
1.085993 1.132149 1.364994
2.022815 1.231511 1.365914
3.424802 1.466370 1.365566
-5.466105 -5.845762 1.366948
-4.143213 -5.579936 1.366152
-1.952494 -5.209681 1.366399
-6.710519 -5.079488 1.366761
-2.399091 -4.780205 1.366726
2.095532 -4.647574 1.366047
2.598357 -4.406683 1.366164
0.672363 -4.349867 1.366792
-6.988831 -3.138038 1.366318
4.484739 -3.124314 1.366040
4.543642 -3.062963 1.366496
-7.098927 -2.826436 1.366591
-7.279883 -2.449263 1.366356
-7.050787 -2.271570 1.366270
1.856427 -2.160479 1.366847
1.878704 -2.010945 1.366224
1.841971 -1.962706 1.366465
4.308748 -1.809253 1.366727
4.089808 -0.749267 1.366777
-6.980840 -0.210977 1.366766
3.925117 -0.194888 1.366277
3.942578 -0.172991 1.366059
4.035804 -0.113874 1.366778
-6.379984 0.041894 1.366526
3.139353 0.887479 1.366567
3.478425 1.126494 1.366769
2.873229 1.147673 1.366698
1.531190 1.177902 1.366263
2.134423 1.330358 1.366108
2.778665 1.375921 1.366452
2.890796 1.438246 1.366665
3.075205 1.461300 1.366921
3.051714 1.479146 1.366746
-5.493889 -5.780154 1.367856
-4.684999 -5.592144 1.367427
-6.696873 -5.474967 1.367506
-1.987506 -5.201565 1.367944
-2.337158 -5.130455 1.367217
-1.340422 -5.118766 1.367720
-1.407896 -5.086570 1.367256
-2.453840 -4.944436 1.367613
-0.508698 -4.927837 1.367857
-2.991301 -4.683235 1.367273
2.113503 -4.643368 1.367082
0.449259 -4.477437 1.367706
2.626241 -4.411818 1.367058
3.175004 -4.367777 1.367571
0.589811 -4.352021 1.367502
0.617315 -4.351499 1.367274
0.644820 -4.350781 1.367040
3.986763 -4.254454 1.367374
-6.701082 -3.985488 1.367070
-7.033404 -3.691991 1.367766
4.351310 -3.599254 1.367133
-6.985476 -3.509562 1.367670
4.464736 -3.302987 1.367527
4.444175 -2.914351 1.367004
4.442599 -2.759453 1.367436
1.798386 -2.246202 1.367699
4.302742 -2.171594 1.367589
4.245392 -1.704744 1.367408
4.260530 -1.639296 1.367458
-7.362446 -1.172357 1.367180
4.006202 -0.340680 1.367371
4.014140 -0.300099 1.367632
-7.450605 -0.124229 1.367924
-7.503001 -0.080508 1.367781
-3.592928 0.455372 1.367218
-3.115455 0.529787 1.367059
-3.115453 0.529797 1.367059
2.622019 0.956983 1.367924
2.633626 1.060081 1.367854
3.476859 1.109635 1.367943
1.574924 1.167857 1.367168
3.822317 1.197112 1.367512
3.760644 1.297764 1.367221
2.878124 1.398379 1.367117
3.405230 1.411680 1.367593
3.339892 1.434367 1.367704
3.101758 1.445605 1.367808
3.066638 1.472588 1.367535
-3.850444 -5.526994 1.368902
-6.738380 -5.218107 1.368467
-1.381210 -5.105403 1.368539
-0.451346 -4.924574 1.368301
-0.456243 -4.882810 1.368175
-3.216301 -4.805037 1.368918
1.815342 -4.764217 1.368221
-2.886696 -4.646322 1.368056
-6.761399 -4.571984 1.368668
1.237851 -4.425059 1.368090
2.567045 -4.419388 1.368776
0.535493 -4.356319 1.368859
3.944704 -4.291625 1.368063
0.701870 -4.286565 1.368517
4.055480 -4.214062 1.368775
-6.753373 -4.075709 1.368332
4.120768 -3.904395 1.368536
-7.155905 -3.381412 1.368201
-7.096409 -3.151747 1.368815
-7.127408 -2.562104 1.368091
1.641227 -2.035246 1.368593
1.965835 -1.866672 1.368497
4.245787 -1.750688 1.368976
-7.468362 -0.880232 1.368785
4.160453 -0.793009 1.368745
4.006813 -0.356809 1.368167
4.039632 -0.156302 1.368792
3.999677 -0.139774 1.368897
-5.106247 0.126578 1.368635
3.921952 0.303943 1.368182
3.942216 0.409650 1.368171
-1.772529 0.710857 1.368297
0.195358 1.030625 1.368028
2.169197 1.100139 1.368340
1.803090 1.237170 1.368863
1.763604 1.271710 1.368510
2.993372 1.393494 1.368671
-5.415427 -5.829841 1.369131
-4.651210 -5.583509 1.369702
-3.817003 -5.510645 1.369452
-3.953534 -5.474387 1.369794
-6.152181 -5.373492 1.369222
-1.927701 -5.164562 1.369708
-1.325946 -4.934713 1.369153
-0.234527 -4.930833 1.369925
-0.265018 -4.921422 1.369264
1.767743 -4.780066 1.369235
1.833069 -4.764290 1.369458
-6.601439 -4.646277 1.369547
2.148960 -4.635892 1.369153
-6.633958 -4.631914 1.369409
2.537926 -4.417358 1.369748
0.632794 -4.360734 1.369493
4.279132 -3.607559 1.369847
-7.084229 -3.055536 1.369640
-7.112488 -2.268050 1.369596
1.766757 -2.264451 1.369245
1.771227 -2.201058 1.369114
1.647565 -2.163336 1.369004
1.646093 -2.066182 1.369860
4.252283 -1.735939 1.369517
-7.348767 -1.653030 1.369143
-7.163540 -1.520886 1.369234
-7.398179 -1.442702 1.369026
-7.358428 -1.192678 1.369119
-7.436254 -0.956503 1.369077
-7.449685 -0.931295 1.369318
-7.507128 -0.102228 1.369252
-5.209431 0.132772 1.369148
-5.261545 0.179626 1.369181
-2.182284 0.660814 1.369325
0.670957 1.051679 1.369121
1.181713 1.120611 1.369255
1.412280 1.179180 1.369487
3.736857 1.231806 1.369599
3.619539 1.281768 1.369405
3.632571 1.304923 1.369348
3.119815 1.441102 1.369301
-5.459904 -5.777127 1.370749
-5.286360 -5.540984 1.370881
-2.009205 -5.207378 1.370711
-1.912262 -5.159582 1.370858
-1.398419 -5.108533 1.370915
-1.291458 -5.022977 1.370016
-0.018944 -4.874157 1.370576
0.210591 -4.802388 1.370094
1.801354 -4.775028 1.370178
-2.678569 -4.770435 1.370534
1.884568 -4.756566 1.370914
0.414644 -4.725574 1.370089
1.629105 -4.571496 1.370754
2.510006 -4.426911 1.370400
3.294381 -4.397096 1.370625
0.564213 -4.363862 1.370527
0.449851 -4.333643 1.370805
0.498787 -4.323701 1.370395
0.587638 -4.309695 1.370129
0.797305 -4.270755 1.370429
1.088200 -4.235402 1.370142
4.050561 -4.233562 1.370540
-6.949128 -3.147286 1.370055
4.486796 -3.147142 1.370157
-7.096776 -2.848911 1.370458
-7.181288 -2.832727 1.370912
-6.938070 -2.581236 1.370984
4.443040 -2.428039 1.370677
-7.053939 -2.293812 1.370862
4.263889 -2.269924 1.370172
1.863514 -1.887760 1.370585
1.910569 -1.845424 1.370405
4.311374 -1.830032 1.370250
4.252867 -1.767723 1.370685
-7.284545 -1.668351 1.370395
-7.159943 -1.545775 1.370367
-7.438583 -0.982579 1.370827
-7.487389 -0.874482 1.370092
4.069036 -0.316524 1.370034
4.050054 -0.141008 1.370763
-6.872986 0.025867 1.370957
-6.403880 0.330668 1.370290
3.934755 0.455180 1.370674
-2.180895 0.671532 1.370635
2.621052 0.941490 1.370710
3.190887 1.002721 1.370895
2.159481 1.064113 1.370549
0.487994 1.072002 1.370634
3.482697 1.095296 1.370793
1.224570 1.119667 1.370879
1.997468 1.249568 1.370978
3.173549 1.282043 1.370049
2.159276 1.338672 1.370733
2.882210 1.368677 1.370750
-5.370820 -5.818977 1.371935
-4.085164 -5.568011 1.371746
-5.324941 -5.553436 1.371331
-3.977460 -5.500008 1.371311
-2.430266 -5.172414 1.371466
-0.129738 -4.916384 1.371013
0.067662 -4.851541 1.371793
0.096163 -4.842334 1.371799
0.228668 -4.801452 1.371385
-2.465661 -4.777448 1.371281
-2.445220 -4.774911 1.371960
-3.016073 -4.689126 1.371326
2.470648 -4.430096 1.371088
3.230910 -4.391411 1.371054
0.509763 -4.367797 1.371869
0.550746 -4.365879 1.371103
0.414091 -4.364083 1.371976
0.551824 -4.319920 1.371050
0.748386 -4.298026 1.371354
0.789881 -4.296177 1.371747
0.872937 -4.288969 1.371770
4.027371 -4.263606 1.371923
4.041842 -4.251397 1.371797
-6.968374 -3.525360 1.371444
4.495173 -3.466322 1.371575
-7.144857 -2.846906 1.371815
4.448794 -2.781987 1.371419
-7.274570 -2.471714 1.371109
-7.020651 -2.373867 1.371518
1.592930 -2.176330 1.371331
1.982545 -1.862803 1.371061
4.271711 -1.658095 1.371624
-7.427101 -1.003587 1.371547
4.100299 -0.767028 1.371101
4.042062 -0.241558 1.371986
3.952082 -0.186629 1.371728
-6.384686 0.054505 1.371785
-4.885982 0.279730 1.371175
3.924161 0.286414 1.371033
3.973215 0.549879 1.371731
-2.196445 0.649595 1.371107
0.358395 1.003331 1.371752
2.636559 1.046432 1.371091
0.810677 1.127819 1.371147
2.887854 1.140002 1.371179
3.737224 1.239359 1.371688
3.756577 1.261924 1.371802
3.621531 1.263690 1.371708
2.880982 1.351358 1.371965
2.274203 1.357261 1.371835
3.175525 1.411490 1.371813
3.141038 1.438857 1.371503
3.346864 1.463379 1.371961
-5.259856 -5.544146 1.372924
-3.977278 -5.472481 1.372592
-1.299643 -5.113675 1.372431
-1.311680 -4.950516 1.372259
-0.250316 -4.937879 1.372090
-0.280239 -4.932314 1.372227
-6.647969 -4.786245 1.372607
-6.669877 -4.659634 1.372039
0.644189 -4.313858 1.372072
0.846584 -4.295309 1.372493
0.842079 -4.267353 1.372367
1.235313 -4.208733 1.372505
-6.786318 -3.890063 1.372590
4.036654 -3.709102 1.372517
4.555267 -3.553643 1.372693
4.563516 -3.095127 1.372367
1.861970 -1.899371 1.372572
1.936535 -1.832047 1.372034
-7.200472 -1.500460 1.372462
-7.272201 -1.388401 1.372715
-7.279637 -1.366155 1.372281
4.209866 -1.293293 1.372772
4.119434 -0.909212 1.372954
4.052069 -0.453235 1.372045
3.934510 -0.208511 1.372166
-7.191429 -0.204834 1.372719
4.050788 -0.198108 1.372592
-5.356969 0.399951 1.372425
-1.786178 0.713714 1.372320
3.838043 0.835616 1.372903
3.155175 0.951929 1.372346
2.159664 1.049067 1.372772
3.827258 1.180163 1.372410
1.803449 1.239492 1.372761
3.194636 1.254913 1.372310
1.678787 1.263675 1.372774
2.175775 1.338716 1.372763
2.993303 1.399037 1.372183
-3.899724 -5.477264 1.373253
-1.798029 -5.220102 1.373290
-6.713801 -5.112907 1.373952
-1.439852 -5.095971 1.373693
-2.453324 -4.980553 1.373331
0.040372 -4.868312 1.373199
0.139860 -4.837934 1.373734
1.854687 -4.775194 1.373878
2.228668 -4.617410 1.373811
-6.748371 -4.592475 1.372995
2.356383 -4.442544 1.373507
2.419602 -4.441771 1.373386
2.577950 -4.407838 1.373686
0.469318 -4.373135 1.373557
0.960826 -4.290843 1.373252
4.450208 -3.567758 1.373599
4.485161 -3.168308 1.373975
1.994389 -2.395565 1.373428
1.641195 -2.089010 1.373621
-7.278008 -1.977245 1.373210
1.933183 -1.843540 1.373673
4.222496 -1.262639 1.373685
-7.438915 -1.035806 1.373884
-7.485569 -0.896477 1.373317
-7.102401 -0.150193 1.373247
-7.066617 -0.124584 1.373825
-6.744127 -0.097492 1.373548
-5.789991 0.002538 1.373372
-4.219064 0.358439 1.373263
-3.924962 0.421295 1.373899
3.926790 0.500706 1.373210
-3.214765 0.516040 1.373195
-1.794706 0.710888 1.373906
0.214101 1.030080 1.373349
0.685511 1.054881 1.373799
1.380222 1.201522 1.373014
3.622982 1.246783 1.373966
3.161883 1.437046 1.373728
-4.060170 -5.565067 1.374737
-5.192676 -5.533636 1.374324
-3.770313 -5.507270 1.374355
-2.389493 -5.170506 1.374235
-1.428887 -5.111703 1.374780
-3.156990 -4.799257 1.374947
0.448087 -4.692712 1.374942
-3.038450 -4.691807 1.374734
2.237164 -4.615454 1.374329
3.093528 -4.390476 1.374196
0.497384 -4.377320 1.374318
0.401537 -4.373295 1.374415
0.949263 -4.296835 1.374166
-6.711325 -4.017457 1.374286
4.133303 -3.931232 1.374818
4.383407 -3.578792 1.374483
4.492303 -3.566876 1.374035
4.447453 -2.801846 1.374001
1.849703 -1.988695 1.374506
4.259147 -1.832596 1.374033
1.955880 -1.827532 1.374543
4.279023 -1.675999 1.374979
4.199615 -1.309223 1.374184
-7.419278 -1.085037 1.374291
4.050723 -0.255149 1.374446
4.055707 -0.211974 1.374159
-5.990685 -0.029121 1.374738
3.905811 0.556980 1.374848
-2.669977 0.586903 1.374431
2.623468 0.927962 1.374074
3.478251 1.042779 1.374891
2.886442 1.093061 1.374156
2.891035 1.110793 1.374068
1.207385 1.193495 1.374534
3.732445 1.195430 1.374414
3.213419 1.227543 1.374189
1.700733 1.235165 1.374927
2.587072 1.324800 1.374540
2.886661 1.337596 1.374626
3.211611 1.401595 1.374802
-5.335928 -5.815126 1.375431
-5.230693 -5.680245 1.375141
-4.594069 -5.578002 1.375661
-5.236860 -5.552086 1.375632
-5.163481 -5.531050 1.375399
-5.128240 -5.523060 1.375665
-5.093105 -5.514887 1.375896
-3.821626 -5.456451 1.375724
-2.035561 -5.223968 1.375648
-0.458702 -5.007028 1.375270
-0.446561 -5.002436 1.375866
-0.311038 -4.942166 1.375690
-0.342489 -4.936079 1.375856
-0.156852 -4.928387 1.375037
-6.514371 -4.921837 1.375105
-0.400385 -4.876283 1.375671
2.345973 -4.452560 1.375412
3.193428 -4.406940 1.375178
2.627454 -4.362522 1.375820
0.893497 -4.273487 1.375852
1.257005 -4.220427 1.375680
4.143713 -3.603580 1.375013
4.324121 -3.592212 1.375842
4.358630 -3.589064 1.375823
4.541394 -3.569660 1.375169
-6.930089 -3.163591 1.375714
-7.082297 -3.079303 1.375554
-6.980093 -2.994727 1.375031
-7.284938 -2.449454 1.375598
1.634939 -2.207447 1.375105
4.273683 -1.819293 1.375842
-7.385730 -1.465011 1.375012
-7.417197 -1.110820 1.375522
4.163202 -0.922449 1.375492
-7.497576 -0.656597 1.375657
4.125975 -0.633008 1.375555
3.948177 -0.204110 1.375665
-7.503110 -0.125094 1.375646
0.945935 -0.012684 1.375319
-5.407622 0.406539 1.375688
3.918309 0.546259 1.375782
3.150467 0.933314 1.375028
1.052290 1.119222 1.375058
2.649520 1.315180 1.375315
3.226396 1.394304 1.375602
-5.996006 -5.693884 1.376155
-4.026145 -5.553985 1.376909
-3.851745 -5.470260 1.376046
-3.813808 -5.413922 1.376697
-3.751202 -5.412289 1.376852
-2.330741 -5.184639 1.376250
-1.457572 -5.102844 1.376716
-7.058346 -4.874412 1.376179
0.128201 -4.856207 1.376457
0.199616 -4.833721 1.376735
-3.135686 -4.795056 1.376519
0.316128 -4.788432 1.376554
-6.592044 -4.667527 1.376631
2.192817 -4.645234 1.376400
1.711639 -4.568308 1.376601
0.459519 -4.529121 1.376252
2.391195 -4.455717 1.376064
0.443312 -4.384168 1.376560
-6.763752 -4.128194 1.376592
4.095507 -3.619982 1.376940
4.292517 -3.598110 1.376350
-7.024480 -3.359291 1.376621
4.568481 -3.121302 1.376761
-7.229064 -2.433192 1.376891
-7.033500 -2.329937 1.376711
4.310749 -2.211512 1.376051
1.660288 -2.087673 1.376454
4.264838 -1.865719 1.376212
4.329019 -1.855599 1.376175
-7.158607 -1.646048 1.376619
-7.483640 -0.918178 1.376780
4.033410 -0.397285 1.376026
4.055445 -0.269082 1.376022
-7.501241 -0.143348 1.376125
-6.821104 -0.041336 1.376669
0.942187 -0.012659 1.376312
-4.971331 0.155697 1.376932
-5.022131 0.202999 1.376405
-4.920941 0.271530 1.376233
-3.629852 0.452328 1.376781
-2.681991 0.582407 1.376730
2.600456 0.885591 1.375999
2.177007 0.960179 1.376950
3.732915 1.202951 1.376342
2.883587 1.303755 1.376880
2.209324 1.338071 1.376774
2.729667 1.380066 1.376174
-5.400744 -5.778996 1.377188
-5.297372 -5.726525 1.377436
-3.985296 -5.533010 1.377459
-5.063244 -5.512527 1.377058
-3.902580 -5.418173 1.377026
-6.080359 -5.374314 1.377450
0.242488 -4.824417 1.377707
0.494340 -4.781189 1.377512
1.958584 -4.762600 1.377638
-3.068993 -4.677982 1.377791
3.147494 -4.413670 1.377667
2.616913 -4.399197 1.377559
0.938829 -4.264466 1.377010
3.969531 -3.638357 1.377909
4.195004 -3.611784 1.377135
4.229933 -3.608486 1.377122
-7.149689 -3.428460 1.377859
4.483455 -3.189506 1.377515
4.602433 -3.127237 1.377177
4.449948 -2.822707 1.377263
4.456875 -2.448324 1.377270
1.990002 -2.405643 1.377085
1.845049 -1.902458 1.377486
-7.150455 -1.671510 1.377276
-7.345590 -1.277965 1.377885
4.109204 -0.803156 1.377986
-5.875902 0.055780 1.377242
-5.845817 0.155454 1.377470
-5.035692 0.236713 1.377816
3.936120 0.253326 1.377784
-6.401035 0.310778 1.377636
-2.226953 0.639269 1.377128
-2.224217 0.648848 1.377893
3.136506 0.838260 1.377027
2.169710 0.941444 1.377832
2.624561 0.993491 1.377162
3.829140 1.160414 1.377113
2.357089 1.243321 1.377317
2.019945 1.249162 1.377031
2.876479 1.284446 1.377076
3.266693 1.370849 1.377348
-5.969162 -5.678818 1.378538
-4.015076 -5.487187 1.378153
-3.861298 -5.423532 1.378132
-2.056662 -5.227762 1.378048
-1.753569 -5.216487 1.378933
-2.428566 -5.210955 1.378778
-2.450724 -5.013257 1.378314
-0.358487 -4.942736 1.378009
0.186676 -4.848463 1.378703
0.300467 -4.811108 1.378897
2.091983 -4.731940 1.378623
-6.668387 -4.715946 1.378132
-3.060958 -4.694314 1.378165
-6.638775 -4.660136 1.378108
-2.785385 -4.640880 1.378215
-6.741735 -4.617517 1.378250
2.302622 -4.469134 1.378484
0.348340 -4.386538 1.378480
3.781450 -4.291212 1.378917
-6.694342 -4.032700 1.378734
-6.950039 -3.937409 1.378864
-6.777117 -3.822423 1.378701
4.491353 -3.097358 1.378458
-7.012838 -2.398360 1.378167
4.397009 -2.362322 1.378520
4.265269 -2.311965 1.378866
-7.268511 -1.997506 1.378116
-7.008066 -1.949649 1.378507
4.267269 -1.913658 1.378538
-7.141212 -1.717381 1.378032
4.041539 -0.411146 1.378518
3.911032 -0.247436 1.378608
3.456178 0.952048 1.378675
2.155616 1.003342 1.378204
1.114134 1.136692 1.378278
2.377532 1.206140 1.378843
1.706617 1.254173 1.378033
3.305995 1.344590 1.378703
3.281433 1.363279 1.378150
3.029452 1.375406 1.378849
3.016075 1.391603 1.377998
3.400445 1.443455 1.378814
-4.530415 -5.562080 1.379985
-5.043063 -5.517778 1.379099
-5.008346 -5.508974 1.379245
-4.973736 -5.499993 1.379354
-4.939053 -5.491007 1.379425
-4.904660 -5.481676 1.379461
-2.108336 -5.211626 1.379775
-1.180177 -5.016060 1.379642
-2.389778 -4.829291 1.379361
1.910977 -4.779903 1.379017
1.600025 -4.651918 1.379486
1.645819 -4.626779 1.379584
2.326904 -4.592536 1.379506
1.752726 -4.568818 1.379744
2.376462 -4.567088 1.379506
2.268707 -4.476407 1.379760
3.995178 -4.355330 1.379745
-6.774284 -3.908923 1.379164
4.048988 -3.640610 1.379556
-6.955376 -3.630437 1.379880
-7.159730 -2.876467 1.379042
4.437737 -2.855187 1.379027
-7.212748 -2.134098 1.379025
4.278178 -1.899746 1.379687
4.282075 -1.708968 1.379246
4.290040 -1.694981 1.379160
-7.399951 -1.214384 1.379466
-7.428700 -1.162361 1.379934
-7.438872 -1.137179 1.379714
4.158912 -0.939227 1.379842
-7.473785 -0.937911 1.379338
4.072401 -0.349345 1.379810
-7.287890 -0.137077 1.379117
-6.454920 0.043945 1.379926
-3.955626 0.417929 1.379322
3.982830 0.495617 1.379408
-1.810730 0.716659 1.379139
3.823071 0.794256 1.379920
0.379068 1.019646 1.379982
0.515478 1.077370 1.379433
3.250062 1.207986 1.379409
1.800856 1.280718 1.379003
3.009331 1.337769 1.379775
2.228329 1.340966 1.379689
-5.220055 -5.703835 1.380882
-3.757277 -5.449757 1.380146
-3.731843 -5.442085 1.380790
-2.093470 -5.222482 1.380289
-2.257202 -5.163208 1.380911
-0.390014 -4.948079 1.380635
0.260268 -4.832485 1.380426
0.315831 -4.811468 1.380007
0.369950 -4.788583 1.380687
1.929534 -4.781423 1.380706
0.413919 -4.780586 1.380451
0.431261 -4.752465 1.380947
-6.661013 -4.739503 1.380255
1.617116 -4.645528 1.380096
2.296507 -4.612127 1.380541
1.710324 -4.597940 1.380365
1.739901 -4.580124 1.380134
-2.552104 -4.418761 1.380918
-2.508240 -4.416856 1.380841
0.363138 -4.396820 1.380774
0.992080 -4.268685 1.380258
4.142182 -3.956340 1.380674
4.462268 -3.373755 1.380309
-7.112815 -2.927344 1.380603
1.637998 -2.165206 1.380432
1.858602 -2.004340 1.380303
4.272507 -1.946298 1.380751
-7.160034 -1.698572 1.380203
-7.397548 -1.238813 1.380617
-7.418323 -1.188781 1.380208
4.000810 -0.392653 1.380365
3.915387 0.608779 1.380767
3.900441 0.635774 1.380972
-2.241590 0.639378 1.380795
0.707343 1.052037 1.380330
2.420185 1.121939 1.380685
3.267085 1.178601 1.380928
3.623901 1.192924 1.380311
1.404953 1.205525 1.380796
2.364238 1.318288 1.380623
3.007245 1.358216 1.380563
3.302757 1.359944 1.380335
3.476619 1.425290 1.380048
-6.006701 -5.773594 1.381950
-4.042760 -5.489572 1.381711
-3.706494 -5.434291 1.381406
-1.160311 -5.058327 1.381209
-2.376790 -5.019403 1.381158
-2.451941 -4.821564 1.381594
-7.046107 -4.794656 1.381249
2.162359 -4.724043 1.381396
1.637517 -4.646432 1.381552
-2.730482 -4.628469 1.381540
1.700181 -4.614314 1.381952
2.218856 -4.487209 1.381596
1.051431 -4.255744 1.381511
1.137949 -4.227011 1.381906
-6.870134 -3.849540 1.381402
4.576812 -3.149651 1.381284
-7.269200 -2.518887 1.381259
4.273041 -1.962570 1.381541
1.994838 -1.831775 1.381790
-7.197951 -1.708203 1.381965
-7.198675 -1.433049 1.381422
-7.090637 -0.225967 1.381448
-3.166196 0.523221 1.381617
3.841011 0.868787 1.381850
2.903393 1.056658 1.381361
3.727084 1.142347 1.381675
1.624653 1.175758 1.381019
2.874426 1.236238 1.381053
2.305190 1.329484 1.381788
3.478526 1.464749 1.381184
3.387909 1.473831 1.381738
-5.255331 -5.801106 1.382065
-4.502085 -5.558827 1.382794
-4.884500 -5.491383 1.382416
-4.850171 -5.481833 1.382393
-4.051155 -5.449980 1.382354
-2.130319 -5.216910 1.382519
-2.318616 -5.215642 1.382228
-1.493065 -5.116412 1.382745
-2.428631 -5.029256 1.382234
-1.132826 -5.005479 1.382643
-7.056340 -4.907324 1.382955
-0.206317 -4.885871 1.382668
0.469991 -4.822479 1.382253
0.403710 -4.797484 1.382960
-3.048088 -4.774464 1.382050
2.179570 -4.723120 1.382349
-3.096311 -4.686610 1.382474
2.372554 -4.581078 1.382353
2.146472 -4.493572 1.382388
3.051717 -4.424455 1.382099
-2.490227 -4.421318 1.382546
0.335691 -4.403329 1.382831
3.955210 -4.303277 1.382564
1.098180 -4.248756 1.382870
-6.904125 -3.943947 1.382538
4.488776 -3.214146 1.382490
-6.922262 -3.183806 1.382445
4.462847 -2.848991 1.382731
-7.045549 -2.356101 1.382840
1.871947 -1.943598 1.382794
-7.114892 -1.817303 1.382537
4.308305 -1.783749 1.382841
-7.097595 -1.521403 1.382031
-7.124641 -1.501009 1.382247
4.210262 -1.344789 1.382347
-7.344694 -1.320540 1.382969
4.102087 -0.838422 1.382431
-7.499832 -0.680537 1.382414
-5.978493 -0.095063 1.382145
-5.043458 0.192573 1.382134
-4.963549 0.265100 1.382502
-5.404982 0.389321 1.382460
3.906740 0.970427 1.382033
2.426069 1.111221 1.382878
3.714914 1.122127 1.382628
3.376131 1.302688 1.382009
-5.997032 -5.730914 1.383866
-3.976907 -5.552159 1.383848
-4.820766 -5.478409 1.383326
-4.789691 -5.471268 1.383568
-6.068991 -5.393373 1.383856
-6.714117 -5.285139 1.383272
-6.803040 -5.239327 1.383737
-1.707641 -5.204628 1.383062
-1.507453 -5.111774 1.383721
-1.418506 -5.086114 1.383439
-0.406449 -4.958462 1.383620
-0.437158 -4.951770 1.383729
-0.355326 -4.879245 1.383209
-2.667427 -4.832435 1.383878
-3.082292 -4.796447 1.383771
0.298163 -4.785394 1.383607
2.148133 -4.734108 1.383114
1.797548 -4.571314 1.383230
1.827900 -4.557064 1.383639
2.059931 -4.503197 1.383535
2.077623 -4.501069 1.383287
-2.536281 -4.426553 1.383685
0.696291 -4.281943 1.383006
-6.758545 -4.149791 1.383349
-6.745702 -3.929797 1.383170
4.045222 -3.753230 1.383660
-7.021211 -3.735398 1.383071
4.615303 -3.150763 1.383767
-7.149982 -2.898018 1.383010
-6.926256 -2.622004 1.383673
-7.215894 -2.452650 1.383032
1.643665 -2.202568 1.383469
4.357525 -2.174047 1.383375
1.637489 -2.138690 1.383045
-7.266964 -2.018574 1.383484
4.274604 -2.010043 1.383927
4.274241 -1.993732 1.383125
4.285303 -1.740548 1.383436
-7.168103 -1.471411 1.383448
-7.175774 -1.449396 1.383489
-7.396171 -1.290608 1.383540
-7.406779 -1.265654 1.383349
3.985947 -0.210522 1.383383
-7.498932 -0.186714 1.383834
1.100402 -0.005311 1.383722
-5.820180 0.073681 1.383144
-4.264059 0.352795 1.383538
-4.264057 0.352808 1.383538
-3.978935 0.411650 1.383269
-2.253280 0.636951 1.383359
3.905722 0.654339 1.383415
3.817572 0.773612 1.383884
3.494930 0.999668 1.383255
3.502096 1.019431 1.383006
2.900645 1.024912 1.382990
2.909040 1.044290 1.383887
1.458279 1.189218 1.382994
2.896491 1.260944 1.383846
1.816549 1.276383 1.383712
-6.685677 -5.526134 1.384202
-2.210820 -5.165871 1.384493
-2.157530 -5.145389 1.383998
-1.120082 -5.047419 1.384559
-0.348067 -4.991767 1.384859
-2.355013 -4.987489 1.384370
-6.696832 -4.852874 1.384555
0.334157 -4.827212 1.384165
-2.418923 -4.823877 1.384790
0.391213 -4.808840 1.384332
0.453376 -4.766075 1.384271
1.816790 -4.567361 1.384328
2.009862 -4.509239 1.384193
1.160864 -4.236941 1.384307
-7.080858 -2.932638 1.384528
4.367855 -2.459013 1.384783
-7.004944 -2.422803 1.384818
-7.037937 -1.981148 1.384294
-7.167731 -1.553818 1.384655
4.251067 -1.549451 1.384221
-7.376533 -1.341769 1.384220
-7.393231 -1.317573 1.384803
4.063260 -0.424666 1.384145
-6.804517 -0.105268 1.384454
-3.659319 0.446966 1.384395
3.986320 0.458867 1.384084
3.828255 0.845735 1.384371
2.902680 1.010815 1.384618
0.857230 1.133684 1.384451
3.623016 1.156642 1.384144
1.763560 1.189836 1.384684
2.877807 1.205813 1.384604
2.098830 1.247222 1.384210
1.864689 1.250383 1.384700
2.762641 1.389501 1.384843
-5.153544 -5.695045 1.385955
-5.003591 -5.614178 1.385350
-4.470538 -5.552939 1.385388
-4.073658 -5.489084 1.385498
-4.767450 -5.477177 1.385949
-4.148680 -5.464473 1.385036
-2.153196 -5.223878 1.385631
-2.346094 -5.163644 1.385487
-2.108890 -5.135496 1.385424
-1.548652 -5.089878 1.385275
-2.437566 -5.064869 1.385347
-1.100970 -5.002131 1.385142
-0.453377 -4.958082 1.385872
-0.160041 -4.881449 1.385600
2.136152 -4.747361 1.385845
2.368645 -4.595068 1.385200
1.961980 -4.518058 1.385311
-6.910392 -4.473223 1.385149
0.103707 -4.441996 1.385051
2.925319 -4.428522 1.385699
2.894330 -4.423554 1.385348
2.688228 -4.391877 1.385310
-6.710344 -3.836118 1.385142
-6.986887 -3.592243 1.385917
-7.165716 -3.462346 1.385265
-7.165802 -3.462075 1.385405
4.581502 -3.176110 1.385560
-7.063528 -3.120534 1.385978
-7.128864 -2.915743 1.385586
-7.279704 -2.496594 1.385968
1.776603 -2.291874 1.385322
-7.030793 -2.005192 1.385085
-7.084134 -1.781544 1.385559
4.213818 -1.515768 1.385597
-7.491954 -0.187782 1.385640
-5.325436 0.171400 1.385215
3.938008 0.200930 1.385554
-3.273688 0.520170 1.385871
-2.718889 0.581847 1.385276
3.907556 0.670772 1.385173
3.901712 0.685013 1.385624
-1.844654 0.704996 1.385467
3.155213 0.887883 1.385779
2.625569 0.948844 1.385511
0.402133 1.005914 1.385748
3.298426 1.155245 1.385117
3.371199 1.335470 1.385640
-3.951441 -5.549262 1.386909
-4.431179 -5.535406 1.386244
-2.058199 -5.121522 1.386281
-1.564108 -5.088814 1.386920
-2.412997 -5.042002 1.386637
-0.279654 -4.942710 1.386114
-0.116000 -4.864871 1.386833
-2.451069 -4.841519 1.386394
0.351477 -4.835083 1.386711
-3.120149 -4.690364 1.386231
0.472076 -4.588365 1.386181
-7.133673 -3.472143 1.386601
4.459895 -3.044875 1.386855
-7.111788 -2.949943 1.386484
4.449205 -2.482285 1.386328
-7.005001 -2.076242 1.386906
4.336660 -1.916404 1.386609
4.292273 -1.758682 1.386814
-7.268344 -1.585485 1.386133
-7.379472 -1.368044 1.386178
4.112246 -0.856299 1.386845
4.102127 -0.483212 1.386282
4.028108 -0.445604 1.386456
3.963109 -0.232619 1.386519
-7.274538 -0.216156 1.386402
-7.188485 -0.166766 1.386033
-5.866304 -0.007496 1.386069
-5.281187 0.119971 1.386111
3.896316 0.390096 1.386806
3.899493 0.700657 1.386742
-1.841631 0.713289 1.386343
3.806155 0.751686 1.386844
2.610393 0.847207 1.386550
3.139489 0.864294 1.386729
2.602987 0.906222 1.386889
3.486945 0.948179 1.386654
3.308606 1.141142 1.386193
1.151435 1.145224 1.386699
1.783151 1.159338 1.386268
3.431322 1.285900 1.386867
2.319672 1.308342 1.386942
2.701349 1.325203 1.386140
2.645775 1.339134 1.386501
2.269778 1.348656 1.386333
-3.909682 -5.526232 1.387035
-4.740375 -5.476725 1.387312
-4.645399 -5.450532 1.387362
-1.540363 -5.113417 1.387753
-1.085305 -5.010287 1.387677
-0.313811 -4.866438 1.387628
0.365296 -4.831631 1.387004
0.381291 -4.827584 1.387268
-6.563592 -4.671865 1.387119
1.903505 -4.534792 1.387658
-2.479918 -4.436836 1.387820
2.711372 -4.388973 1.387776
3.946851 -4.321558 1.387062
4.154456 -3.983393 1.386989
4.493996 -3.238868 1.387262
4.509113 -3.157797 1.387783
1.759008 -2.212314 1.387342
1.638510 -2.093147 1.387187
-7.314969 -1.383780 1.387623
4.219387 -1.363131 1.387224
-7.477487 -0.982007 1.387139
4.071491 -0.453647 1.387399
4.057127 -0.384703 1.387505
3.945162 -0.254350 1.387681
3.979962 -0.228581 1.387390
-6.978893 0.015798 1.387695
-5.000214 0.257726 1.387851
3.886942 0.335601 1.387916
-4.005943 0.406549 1.387955
-3.187942 0.518462 1.387807
3.135126 0.789421 1.387872
2.180529 0.906877 1.386992
2.435777 1.060292 1.387971
3.713558 1.086970 1.387869
2.437717 1.089730 1.387293
1.646130 1.177624 1.387179
1.458783 1.190543 1.386992
2.313630 1.274956 1.387695
3.019001 1.294898 1.387828
-3.875628 -5.512236 1.388414
-4.714497 -5.475303 1.388478
-4.681479 -5.464317 1.388109
-4.619738 -5.448714 1.388447
-6.708151 -5.175281 1.388291
-2.367829 -5.041645 1.388183
-0.293498 -4.950174 1.388514
2.204543 -4.737703 1.388014
1.878835 -4.566743 1.388658
2.971054 -4.446707 1.388398
4.047775 -3.774114 1.388919
4.532882 -3.028947 1.388085
4.475631 -2.875367 1.388205
-7.049946 -2.379799 1.388081
4.290491 -2.046409 1.388127
-7.261480 -2.038680 1.388492
1.858069 -2.036772 1.388418
-7.108926 -1.562987 1.388761
-7.384285 -1.394599 1.388389
-7.511361 -0.635155 1.388971
3.985103 -0.427277 1.388558
-7.530324 -0.187802 1.388887
-6.013776 0.020991 1.388398
-1.855856 0.704642 1.388279
0.731381 1.067440 1.388758
3.333092 1.097088 1.388348
1.280745 1.125956 1.388415
3.638997 1.144990 1.388879
2.890255 1.195077 1.388654
-5.549963 -5.813327 1.389985
-4.592893 -5.447677 1.389689
-4.561928 -5.439694 1.389860
-1.955904 -5.197464 1.389199
-1.582072 -5.095163 1.389955
-2.432590 -5.094171 1.389587
-1.095792 -5.054204 1.388991
-1.038132 -4.990816 1.389384
-7.054171 -4.940281 1.389753
-0.333212 -4.940900 1.389640
-0.348117 -4.932400 1.389137
-0.388616 -4.916623 1.389191
2.124005 -4.764783 1.389687
2.224182 -4.739821 1.389957
2.240733 -4.734806 1.389765
0.123458 -4.458456 1.389620
3.006659 -4.455289 1.389365
0.149000 -4.446200 1.389721
0.161968 -4.437843 1.389549
2.779276 -4.433283 1.389623
3.921553 -4.329193 1.389675
3.843498 -4.309924 1.389044
0.744201 -4.267093 1.389065
-6.674144 -4.074457 1.389723
3.972755 -3.712250 1.389880
-7.061957 -2.482504 1.389943
4.286038 -2.358180 1.389181
4.368501 -2.194966 1.389946
4.294494 -2.063751 1.389586
-7.037576 -2.057772 1.389557
-7.046574 -2.035352 1.389088
-7.076110 -1.802822 1.389058
4.257954 -1.531439 1.389900
-7.358793 -1.469508 1.389894
-7.369998 -1.444922 1.389738
4.084943 -0.439035 1.389818
-6.532995 0.034180 1.389006
-5.948296 0.046575 1.389399
-5.847127 0.060418 1.389585
3.943691 0.184087 1.389112
-5.092642 0.227615 1.389050
3.951002 0.425531 1.389045
3.792784 0.729154 1.389524
3.898480 0.733575 1.389665
3.494044 0.934535 1.389810
2.171703 0.957694 1.389915
2.436660 1.033456 1.389528
3.714333 1.094379 1.389322
1.802812 1.142740 1.389171
2.315811 1.261017 1.389158
3.455614 1.284312 1.389768
2.310976 1.339316 1.389805
3.507046 1.464870 1.389298
-4.532957 -5.435127 1.390536
-1.650681 -5.203351 1.390866
-2.012588 -5.126111 1.390634
-1.361933 -5.101430 1.390913
-0.470731 -4.976019 1.390522
-0.532222 -4.961533 1.390690
-2.661828 -4.865436 1.390963
-2.451613 -4.859977 1.390125
-3.206026 -4.759790 1.390563
-3.147638 -4.698709 1.390927
1.479606 -4.597476 1.390708
1.863256 -4.551422 1.390120
1.948950 -4.542266 1.390503
2.867331 -4.445718 1.390368
2.747494 -4.376540 1.390973
-6.805085 -3.948823 1.390061
4.489756 -3.260182 1.390845
4.589086 -3.205621 1.390195
4.407102 -2.400787 1.390681
1.800213 -2.209602 1.390048
-7.001585 -2.126618 1.390037
4.290697 -1.791618 1.390341
-7.351437 -1.494570 1.390554
-7.385065 -1.420705 1.390089
3.962846 -0.249022 1.390934
-6.215525 0.012718 1.390837
-5.842499 0.044628 1.390918
-5.901879 0.131487 1.390538
-5.078529 0.183475 1.390045
-5.368587 0.184384 1.390357
-6.535101 0.320110 1.390280
4.004869 0.426274 1.390941
-2.740782 0.583277 1.390547
3.109322 0.747310 1.390954
3.138258 0.846936 1.390091
3.482534 0.897014 1.390870
1.820271 1.110807 1.390225
1.253156 1.139846 1.390834
1.152062 1.145702 1.390780
1.274650 1.192433 1.390932
3.492728 1.254432 1.390795
3.477726 1.263753 1.390025
1.838479 1.276656 1.390146
3.019216 1.300425 1.390867
2.251156 1.311197 1.390486
3.531955 1.430760 1.390615
-4.124352 -5.484290 1.391473
-4.504412 -5.430125 1.391165
-2.181812 -5.243293 1.391279
-0.402581 -4.921727 1.391241
-2.378456 -4.874708 1.391390
-0.052079 -4.867936 1.391884
2.431317 -4.692728 1.391849
2.846565 -4.449908 1.391628
2.771468 -4.350471 1.391627
4.149044 -4.001234 1.391073
-6.973236 -3.515023 1.391743
-7.009994 -3.509861 1.391458
4.469642 -3.075812 1.391821
4.446193 -2.899391 1.391164
4.389690 -2.791880 1.391513
-7.223449 -2.182547 1.391286
-6.995871 -2.150952 1.391067
4.298438 -2.097699 1.391879
1.874947 -1.983480 1.391194
4.211471 -1.474982 1.391550
4.196339 -1.286477 1.391127
-5.035297 0.137754 1.391351
3.954316 0.410350 1.391757
2.181951 0.880307 1.391965
3.904360 0.916642 1.391749
2.920391 0.990088 1.391132
0.259708 1.051059 1.391724
3.354055 1.087251 1.391425
2.475110 1.099438 1.391137
3.003587 1.244792 1.391592
3.000207 1.264557 1.391674
2.327746 1.338556 1.391811
2.305714 1.350584 1.391238
2.869294 1.394621 1.391113
3.471711 1.457652 1.391324
3.429053 1.484035 1.391600
-5.515059 -5.809235 1.392069
-5.958038 -5.731000 1.392965
-6.072029 -5.426096 1.392338
-1.635552 -5.199059 1.392122
-1.600959 -5.179202 1.392934
-1.598889 -5.097684 1.392311
-0.487084 -4.982209 1.392663
-0.502317 -4.976662 1.392292
-2.906345 -4.746109 1.392346
2.363675 -4.711646 1.392163
-6.717252 -3.866554 1.392528
-7.012922 -3.694980 1.392900
-7.082318 -2.976154 1.392558
4.485196 -2.899288 1.392906
4.456764 -2.502449 1.392475
4.368541 -2.500335 1.392717
-6.989787 -2.176449 1.392146
1.616483 -2.120894 1.392596
4.294588 -2.113225 1.392059
-7.277329 -1.858099 1.392635
4.293466 -1.809550 1.392954
4.214005 -1.396899 1.392583
-7.421307 -1.090780 1.392278
-7.476152 -0.729201 1.392874
4.091110 -0.466810 1.392564
-6.575888 0.014337 1.392873
3.953315 0.168097 1.392905
3.946265 0.391546 1.392642
-3.206050 0.512319 1.392902
3.907272 0.753159 1.392782
3.821179 0.806437 1.392017
2.917341 0.957837 1.392765
0.419969 1.016978 1.392556
3.691360 1.032054 1.392475
3.633995 1.107471 1.392054
1.622398 1.189161 1.392061
1.442270 1.218470 1.392522
3.514451 1.249118 1.392949
2.300770 1.361459 1.392653
-4.484496 -5.438406 1.393877
-1.857910 -5.162981 1.393239
-1.302529 -5.084431 1.393271
-1.255973 -5.061442 1.393480
-0.992234 -4.990703 1.393525
-2.962828 -4.777449 1.393819
2.347973 -4.718843 1.392995
2.416612 -4.703981 1.393833
0.438085 -4.616292 1.393653
0.510420 -4.573679 1.393333
1.990916 -4.537982 1.393025
-6.903445 -4.495582 1.393142
0.382626 -4.487601 1.393397
-2.469519 -4.452338 1.393091
2.771496 -4.449492 1.393013
0.194217 -4.443759 1.393403
0.207671 -4.439227 1.393925
-7.034831 -3.766512 1.393375
-7.060966 -3.511603 1.393083
-6.946863 -2.650550 1.393042
-7.008346 -2.450424 1.393495
1.650830 -2.104924 1.393174
1.863304 -2.050872 1.392994
-7.321333 -1.425299 1.393548
-7.468980 -1.024843 1.393731
-7.493340 -0.231311 1.393600
-7.375053 -0.147402 1.393388
-5.929715 0.150562 1.393037
-4.309062 0.346853 1.393828
-5.500869 0.400092 1.393001
-4.036396 0.403358 1.393364
-3.692528 0.442445 1.393001
2.445946 0.998333 1.393959
3.692287 1.039383 1.393697
0.558115 1.086400 1.393273
3.627567 1.087463 1.393188
2.471731 1.145169 1.393401
2.326362 1.237736 1.393659
2.138410 1.256200 1.393642
2.374629 1.316473 1.393812
-5.482450 -5.805827 1.394093
-5.113303 -5.718401 1.394670
-4.129428 -5.522063 1.394429
-4.365842 -5.513258 1.394580
-4.456929 -5.432600 1.394298
-2.220589 -5.240611 1.394213
-1.627948 -5.091645 1.394871
-2.335018 -5.058635 1.394510
-1.212372 -5.047661 1.394881
-1.030114 -5.037211 1.394442
-1.182441 -5.032361 1.394863
-6.623738 -5.025556 1.394694
-2.340481 -5.020266 1.394380
-0.549516 -4.975267 1.394503
-2.442684 -4.740283 1.394374
2.399308 -4.709990 1.394229
2.469449 -4.691512 1.394215
0.481054 -4.640558 1.394584
-2.581310 -4.611573 1.394094
2.044716 -4.521803 1.394781
4.503367 -3.206631 1.394391
4.621830 -3.191957 1.394792
-7.124971 -2.979628 1.394098
4.476816 -2.914961 1.393992
1.669704 -2.243563 1.394476
-6.991621 -2.202548 1.394232
4.348914 -1.959618 1.394644
4.261649 -1.550982 1.394223
-7.474556 -0.931919 1.394298
4.128340 -0.894527 1.394887
4.089283 -0.509802 1.394287
4.093189 -0.495443 1.394459
3.999068 -0.441916 1.394008
-7.490995 -0.250450 1.394805
-7.176527 -0.243567 1.394166
-6.851290 -0.116402 1.394149
-5.315287 0.112004 1.394635
-5.046665 0.251768 1.394725
-3.315760 0.513958 1.394254
3.888756 0.795733 1.394198
3.882506 0.809827 1.394671
3.506580 0.923041 1.394009
3.716543 1.060903 1.394790
2.319342 1.205559 1.394046
3.554324 1.221076 1.394705
3.532387 1.242343 1.394445
3.003942 1.250260 1.394417
1.901006 1.253025 1.394589
-4.413740 -5.514653 1.395255
-2.239578 -5.238268 1.395491
-1.900051 -5.207368 1.395944
-1.880211 -5.194036 1.395807
-1.800257 -5.142185 1.395526
-2.431066 -5.130473 1.395281
-1.616203 -5.104151 1.395295
-1.842605 -4.997426 1.395189
-7.045753 -4.968140 1.395842
-0.256633 -4.857624 1.395333
-3.175281 -4.706856 1.395643
-6.774964 -4.701302 1.394992
-2.543998 -4.598032 1.395115
2.449041 -4.594364 1.395035
